x y z nx ny nz
-0.004096 -0.050475 0.643948 0.017427 -0.999314 0.032674
0.003866 -0.050488 0.643923 -0.009490 -0.999588 0.027074
0.011700 -0.049958 0.644077 0.296047 -0.954782 -0.027346
0.016155 -0.048348 0.646289 0.637455 -0.765542 -0.087162
-0.080858 -0.044748 0.644809 -0.970275 0.130221 -0.203983
-0.079569 -0.042086 0.642643 -0.947762 0.228409 -0.222658
0.015395 -0.047808 0.641614 0.525654 -0.846999 -0.079257
0.018955 -0.044327 0.644293 0.835301 -0.538801 -0.109388
-0.080180 -0.039543 0.647586 -0.951100 0.258828 -0.168572
-0.078283 -0.035966 0.644155 -0.934901 0.289394 -0.205456
0.021024 -0.036315 0.644525 0.993877 0.017464 -0.109106
-0.075418 -0.028294 0.644090 -0.869882 0.426743 -0.247377
-0.069154 -0.024447 0.641438 -0.242223 0.863695 -0.441994
-0.061905 -0.024374 0.641326 -0.144440 0.970215 -0.194476
0.015114 -0.024719 0.640956 0.729140 0.586534 -0.352608
0.019160 -0.028250 0.644791 0.902666 0.379913 -0.202141
-0.072993 -0.023213 0.646302 -0.642972 0.723533 -0.251170
-0.068127 -0.022487 0.644782 -0.193155 0.927060 -0.321326
-0.059976 -0.021994 0.644620 -0.104039 0.952303 -0.286870
-0.051875 -0.020018 0.644551 -0.319524 0.899274 -0.298680
-0.044582 -0.020235 0.643870 -0.395674 0.890631 -0.224094
-0.037111 -0.018822 0.643835 -0.341815 0.902934 -0.260524
-0.027937 -0.017636 0.644089 -0.105336 0.970456 -0.217071
-0.021278 -0.017066 0.642732 -0.255929 0.900541 -0.351464
0.014266 -0.020133 0.645130 0.892522 0.348401 -0.286393
0.016509 -0.023213 0.647210 0.866153 0.497205 -0.050652
-0.019023 -0.013022 0.645198 -0.705050 0.467658 -0.533104
-0.014506 -0.015063 0.640881 -0.269801 0.775241 -0.571146
0.013369 -0.011063 0.646314 0.951763 0.010086 -0.306670
-0.020728 -0.004212 0.645923 -0.899187 -0.248228 -0.360341
0.014148 -0.003230 0.646607 0.963647 -0.050133 -0.262434
-0.025101 0.006835 0.647196 -0.933199 -0.242239 -0.265444
-0.022888 0.002979 0.645749 -0.887060 -0.276040 -0.370036
0.014488 0.004301 0.646646 0.959140 -0.041961 -0.279803
-0.025989 0.012030 0.646540 -0.921404 -0.194115 -0.336651
-0.022858 0.011313 0.642910 -0.836590 -0.189629 -0.513963
0.014599 0.012183 0.645967 0.952875 0.018476 -0.302800
-0.027130 0.020265 0.646054 -0.924991 -0.130077 -0.357033
0.013575 0.020196 0.645606 0.950919 0.095792 -0.294238
-0.027813 0.027750 0.645775 -0.940072 -0.086199 -0.329901
0.012877 0.028481 0.645715 0.940389 0.197661 -0.276764
-0.028898 0.035950 0.646080 -0.945090 -0.150758 -0.289962
0.007993 0.039216 0.641572 0.882078 0.227324 -0.412628
0.011041 0.035838 0.645865 0.932673 0.217440 -0.287821
-0.049443 0.047454 0.647646 -0.310921 -0.949428 -0.043752
-0.042112 0.045542 0.646948 -0.249883 -0.964317 -0.087476
-0.036069 0.044575 0.646694 -0.338305 -0.936019 -0.097043
-0.030543 0.041804 0.646064 -0.791323 -0.570900 -0.218815
0.007443 0.045478 0.643670 0.896236 0.263119 -0.357111
0.009360 0.043218 0.646063 0.924578 0.282207 -0.255958
-0.049318 0.052040 0.647363 -0.958856 0.019507 -0.283222
-0.047259 0.048664 0.647583 -0.296060 -0.954805 -0.026388
0.006389 0.052024 0.645443 0.939765 0.215500 -0.265332
-0.048621 0.059247 0.646767 -0.978988 -0.095934 -0.179941
0.005284 0.059743 0.645916 0.972779 0.001303 -0.231732
-0.057693 0.069621 0.647428 -0.468554 -0.854765 -0.223235
-0.054026 0.067756 0.647696 -0.662421 -0.745006 -0.078517
0.006356 0.066264 0.645599 0.831515 -0.496744 -0.248651
0.011356 0.070385 0.646156 0.454383 -0.877585 -0.152908
0.018575 0.071837 0.647139 0.125821 -0.986354 -0.106183
-0.064548 0.076592 0.647588 -0.857006 -0.447504 -0.255500
-0.062271 0.073231 0.646637 -0.631553 -0.725128 -0.274463
0.014437 0.072688 0.644044 0.219769 -0.961403 -0.165548
0.020409 0.072976 0.644925 0.142310 -0.978836 -0.147063
0.028080 0.075197 0.645200 0.597347 -0.773228 -0.212827
0.032209 0.079110 0.647023 0.939913 -0.334856 -0.066593
-0.100532 0.087497 0.647467 -0.071983 -0.963431 -0.258107
-0.092199 0.087632 0.647470 -0.030370 -0.979532 -0.198982
-0.082578 0.086158 0.645790 -0.437729 -0.870829 -0.223718
-0.076022 0.084736 0.645328 -0.109725 -0.974888 -0.193786
-0.068562 0.084357 0.644768 -0.109981 -0.972455 -0.205513
-0.063377 0.084048 0.644114 -0.509704 -0.841907 -0.177185
0.031360 0.082218 0.644524 0.873845 -0.446388 -0.192699
0.035832 0.085848 0.645102 0.590317 -0.788193 -0.174002
0.040168 0.087984 0.646272 0.674377 -0.716963 -0.176579
-0.129059 0.095159 0.647292 -0.565381 -0.777359 -0.275785
-0.123754 0.092316 0.646063 -0.375892 -0.889508 -0.259771
-0.115811 0.090084 0.646828 -0.058501 -0.990636 -0.123362
-0.108495 0.089905 0.646285 -0.121215 -0.970063 -0.210439
-0.100536 0.089174 0.645116 -0.080959 -0.945269 -0.316090
-0.092152 0.088996 0.645573 -0.011898 -0.962185 -0.272137
-0.085171 0.089137 0.644181 -0.349679 -0.889584 -0.293880
0.039229 0.088651 0.642793 0.649031 -0.727730 -0.221738
0.042426 0.092128 0.644865 0.866113 -0.464201 -0.185378
-0.133507 0.100546 0.646615 -0.821048 -0.474659 -0.317142
0.044348 0.099853 0.644015 0.985718 -0.057103 -0.158424
-0.136470 0.110553 0.647394 -0.932076 0.078791 -0.353591
-0.133932 0.107077 0.644362 -0.855209 -0.092659 -0.509933
0.044122 0.107974 0.643675 0.993299 -0.025198 -0.112788
-0.136299 0.112435 0.647319 -0.938331 0.153632 -0.309728
-0.132439 0.115887 0.645350 -0.706544 0.501603 -0.499189
-0.125940 0.118756 0.641417 -0.529180 0.603210 -0.596746
0.044287 0.115543 0.644096 0.975462 0.135319 -0.173675
-0.129345 0.120570 0.646848 -0.559740 0.712576 -0.422996
-0.124168 0.122928 0.645023 -0.447540 0.775930 -0.444567
-0.115695 0.124767 0.644574 -0.085924 0.925479 -0.368926
-0.108080 0.125703 0.645150 -0.124221 0.923416 -0.363141
-0.101758 0.126216 0.644024 -0.141025 0.896751 -0.419463
-0.091529 0.126629 0.644269 -0.027755 0.928855 -0.369402
-0.084200 0.126984 0.643564 -0.455973 0.798773 -0.392491
-0.049418 0.127574 0.641607 0.234896 0.946638 -0.220684
-0.044515 0.127326 0.642067 0.139652 0.981398 -0.131743
-0.038313 0.127341 0.642019 -0.043917 0.992423 -0.114749
-0.026254 0.127782 0.640329 0.058557 0.954670 -0.291850
-0.017397 0.127765 0.641433 0.125092 0.938644 -0.321401
-0.010873 0.127311 0.641179 0.065838 0.947109 -0.314084
-0.003283 0.127804 0.642361 0.003709 0.968544 -0.248815
0.003864 0.126954 0.641144 0.007576 0.975335 -0.220598
0.013265 0.127736 0.642613 -0.004267 0.975932 -0.218035
0.019436 0.127272 0.641879 0.015650 0.975272 -0.220451
0.028872 0.127477 0.642419 0.073254 0.962316 -0.261880
0.036660 0.126097 0.644231 0.424718 0.868235 -0.256479
0.041963 0.122077 0.644684 0.826508 0.522191 -0.210240
-0.100332 0.128335 0.647494 -0.103495 0.953087 -0.284453
-0.092223 0.128158 0.647654 0.018484 0.954208 -0.298571
-0.082331 0.129376 0.645081 -0.537059 0.794573 -0.283235
-0.076315 0.131127 0.644908 -0.140293 0.952261 -0.271139
-0.068158 0.131551 0.644852 -0.083005 0.970268 -0.227354
-0.060446 0.132095 0.644607 -0.060187 0.961027 -0.269823
-0.052477 0.131283 0.645035 0.185507 0.947911 -0.258944
-0.041452 0.128692 0.644356 0.021265 0.991969 -0.124683
-0.035705 0.128686 0.643733 -0.084257 0.984367 -0.154666
-0.029014 0.130185 0.644502 -0.226648 0.946131 -0.231229
-0.020658 0.130442 0.644936 0.060254 0.966612 -0.249058
-0.011530 0.129195 0.645374 0.094087 0.972111 -0.214821
-0.003819 0.129234 0.645607 0.009118 0.980300 -0.197305
0.003940 0.129061 0.645174 0.005952 0.979323 -0.202217
0.011985 0.129047 0.645579 0.006944 0.982724 -0.184946
0.020125 0.129028 0.645336 0.004011 0.985727 -0.168301
0.028279 0.128759 0.645325 0.046630 0.988810 -0.141705
0.033796 0.128983 0.646214 0.085678 0.994772 -0.055567
-0.081538 -0.050251 0.652212 -0.720196 -0.691908 -0.050798
-0.076017 -0.052344 0.652135 -0.084154 -0.996078 0.027332
-0.068023 -0.052263 0.652415 0.019777 -0.998987 0.040428
-0.060102 -0.052087 0.652225 0.026686 -0.998864 0.039478
-0.051912 -0.051845 0.652376 0.050518 -0.998018 0.037515
-0.044011 -0.051243 0.651820 0.056593 -0.998012 0.027731
-0.036076 -0.051001 0.652179 0.034695 -0.998824 0.033852
-0.027951 -0.050710 0.652215 0.031139 -0.998698 0.040405
-0.019919 -0.050484 0.652189 0.026166 -0.998701 0.043723
-0.011992 -0.050318 0.652090 0.014906 -0.998994 0.042290
-0.004046 -0.050211 0.652185 0.013178 -0.999068 0.041093
0.003894 -0.050220 0.652229 -0.016362 -0.999105 0.038998
0.011909 -0.049932 0.652040 0.235267 -0.971817 0.014897
0.016450 -0.048465 0.652196 0.596977 -0.801336 -0.038449
-0.081873 -0.044004 0.652067 -0.980732 0.161920 -0.109304
0.015883 -0.047871 0.653191 0.478381 -0.878041 -0.013953
0.019687 -0.044477 0.652494 0.850206 -0.524791 -0.041770
-0.080576 -0.038301 0.653100 -0.955519 0.281252 -0.088767
-0.079157 -0.034696 0.651685 -0.945969 0.306212 -0.106661
0.021474 -0.036342 0.652019 0.998675 -0.033963 -0.038659
-0.076757 -0.027970 0.652071 -0.913294 0.396352 -0.093805
0.015271 -0.024618 0.653404 0.827508 0.558302 0.059419
0.020332 -0.028411 0.652076 0.934663 0.355144 -0.016647
-0.073806 -0.022486 0.652559 -0.723596 0.682069 -0.105789
-0.067985 -0.020996 0.652432 -0.162250 0.981334 -0.103239
-0.060013 -0.020418 0.652784 -0.098348 0.991240 -0.088152
-0.052245 -0.018377 0.652405 -0.335865 0.938341 -0.081918
-0.044957 -0.016929 0.652033 -0.137071 0.984475 -0.109633
-0.035536 -0.016994 0.651923 0.022015 0.996120 -0.085205
-0.028880 -0.016944 0.651975 -0.149321 0.986524 -0.066885
-0.023440 -0.016029 0.654460 -0.433198 0.895306 0.103757
0.015338 -0.019543 0.652158 0.994724 0.090454 0.048400
0.016581 -0.022066 0.650217 0.940009 0.328681 0.091387
-0.042343 -0.015629 0.653361 -0.063672 0.993550 -0.093827
-0.025536 -0.015536 0.653206 -0.434541 0.894314 -0.106658
-0.022267 -0.011668 0.652495 -0.958819 0.264798 -0.102702
0.015275 -0.011850 0.652715 0.999903 0.013781 0.002166
-0.024322 -0.001064 0.653442 -0.945768 -0.324421 0.016541
-0.022903 -0.004442 0.652377 -0.966777 -0.248879 -0.058327
0.015525 -0.004229 0.652550 0.998325 -0.057175 -0.008900
0.016124 -0.002392 0.653193 0.999249 -0.036663 0.012577
-0.025764 0.003980 0.652673 -0.957305 -0.286626 -0.037591
-0.023820 0.000207 0.648930 -0.909213 -0.313592 -0.273845
0.015600 0.003849 0.652616 0.999636 -0.026829 0.002708
0.016279 0.004344 0.653334 0.997190 -0.045697 0.059361
-0.027738 0.012034 0.652488 -0.978055 -0.202799 -0.047761
0.015728 0.012072 0.651705 0.999619 0.023226 -0.014941
0.016304 0.012158 0.653083 0.999054 0.022995 0.036907
-0.029034 0.019992 0.652441 -0.990272 -0.130454 -0.048413
0.015311 0.020398 0.652631 0.995769 0.090794 0.014174
0.016140 0.016584 0.652863 0.990908 0.132737 -0.021974
-0.029859 0.027982 0.652522 -0.996307 -0.078231 -0.035388
0.014472 0.027894 0.652785 0.980072 0.196669 0.027941
0.016348 0.025753 0.654981 0.859083 0.152449 0.488606
-0.030435 0.035781 0.652860 -0.992801 -0.118338 0.018522
0.012421 0.035977 0.652723 0.972652 0.230835 0.025772
-0.050376 0.047416 0.652233 -0.220712 -0.970591 0.096117
-0.043568 0.045732 0.652448 -0.284099 -0.958283 0.031335
-0.035992 0.043962 0.652313 -0.395336 -0.918180 0.025608
-0.031356 0.041146 0.652544 -0.852681 -0.519852 0.051859
0.010413 0.043932 0.652646 0.953793 0.298222 0.036631
-0.051508 0.051368 0.652713 -0.994709 -0.101171 -0.017821
-0.047341 0.048214 0.651727 -0.268804 -0.962726 0.030046
0.007450 0.053694 0.652252 0.975755 0.218800 0.005351
0.008464 0.050411 0.653005 0.967400 0.247394 0.054155
-0.051134 0.060170 0.652841 -0.982878 -0.173416 0.062267
0.006602 0.060370 0.652755 0.996488 -0.038541 0.074341
0.008070 0.059335 0.654843 0.774384 -0.001033 0.632715
-0.065048 0.071824 0.655410 -0.556155 -0.506480 0.658915
-0.059542 0.069431 0.652930 -0.470463 -0.875332 0.111620
-0.054080 0.066592 0.652839 -0.741265 -0.660255 0.120789
0.007343 0.065392 0.652889 0.903945 -0.414733 0.104308
0.011671 0.069900 0.652430 0.521637 -0.847223 0.100538
0.018451 0.071760 0.651318 0.138664 -0.988472 0.060797
0.024710 0.071988 0.649635 0.368501 -0.929627 0.001121
-0.065703 0.074998 0.653246 -0.842613 -0.518940 0.143892
-0.062980 0.072727 0.652316 -0.622952 -0.782234 0.006471
0.015107 0.072244 0.653454 0.269162 -0.950123 0.157537
0.020476 0.072665 0.652407 0.139204 -0.984136 0.109997
0.028393 0.074821 0.652426 0.564810 -0.818955 0.101502
0.032267 0.078763 0.652067 0.949382 -0.308656 0.058349
-0.121282 0.087972 0.652840 -0.135774 -0.988704 -0.063481
-0.116061 0.087813 0.654244 -0.059402 -0.988382 0.139901
-0.107468 0.087626 0.653691 -0.136599 -0.986686 0.088267
-0.099796 0.087136 0.652639 -0.057740 -0.998316 -0.005579
-0.092067 0.087354 0.652898 0.018026 -0.999838 -0.000097
-0.083511 0.086060 0.652117 -0.333074 -0.942743 0.017244
-0.076129 0.084157 0.652132 -0.100599 -0.994169 0.038831
-0.068858 0.083367 0.652289 -0.376930 -0.924271 0.060392
0.031875 0.081734 0.654501 0.926144 -0.308365 0.217181
0.035583 0.084955 0.652449 0.653501 -0.742127 0.148946
0.040312 0.087622 0.649685 0.689390 -0.724372 -0.005135
-0.130292 0.094379 0.653095 -0.574529 -0.817655 -0.036848
-0.124033 0.090804 0.652287 -0.384064 -0.922748 -0.032100
-0.116065 0.089218 0.652223 -0.051408 -0.998561 0.015262
-0.108117 0.088801 0.652340 -0.120537 -0.992612 -0.013900
-0.102612 0.088292 0.651780 -0.172663 -0.984764 -0.020692
-0.091480 0.088190 0.649107 -0.012826 -0.994913 -0.099918
-0.086520 0.088278 0.649818 -0.245501 -0.969389 -0.003918
0.039488 0.088239 0.654566 0.613164 -0.758924 0.219235
0.042607 0.091611 0.652430 0.855676 -0.506608 0.105671
-0.136445 0.102746 0.653422 -0.937775 -0.325896 -0.119874
-0.133909 0.098728 0.651983 -0.819787 -0.555306 -0.139944
0.044892 0.099455 0.652371 0.994860 -0.076035 0.066870
-0.137183 0.108006 0.652400 -0.990889 -0.079037 -0.109046
-0.135927 0.104324 0.649639 -0.941323 -0.242368 -0.234880
0.044662 0.108315 0.652142 0.997715 -0.028845 0.061104
-0.136803 0.113759 0.652938 -0.958339 0.257740 -0.123109
-0.134171 0.117821 0.651823 -0.781207 0.592484 -0.196671
0.044801 0.115971 0.652402 0.982829 0.167390 0.077640
-0.130473 0.121906 0.652638 -0.607436 0.783995 -0.127955
-0.124243 0.125527 0.652276 -0.431861 0.892330 -0.131311
-0.116258 0.126924 0.651276 -0.073039 0.991593 -0.106810
-0.108051 0.127069 0.650591 -0.120572 0.983514 -0.134766
-0.100524 0.127674 0.652131 -0.106706 0.990932 0.081651
-0.091137 0.127745 0.654139 -0.010622 0.961923 0.273113
-0.086025 0.127711 0.653896 -0.147050 0.953234 0.264047
0.007848 0.127972 0.655979 0.023285 0.923079 0.383904
0.012882 0.127942 0.655640 0.014896 0.938315 0.345460
0.020608 0.127928 0.655659 0.021674 0.926420 0.375867
0.029149 0.127855 0.654977 0.095536 0.939043 0.330260
0.036810 0.126932 0.652686 0.386283 0.906031 0.172894
0.042199 0.122866 0.652235 0.810985 0.572941 0.118498
-0.113976 0.128144 0.654487 -0.041856 0.996681 0.069823
-0.107970 0.128231 0.653652 -0.094742 0.995277 -0.021172
-0.100580 0.128937 0.652573 -0.130926 0.988232 -0.079089
-0.092340 0.128864 0.652419 0.025123 0.998092 -0.056402
-0.083234 0.130086 0.652183 -0.393366 0.918716 -0.034983
-0.075847 0.131693 0.651530 -0.106283 0.994249 -0.013175
-0.067909 0.132053 0.651997 -0.110597 0.993857 -0.004071
-0.060069 0.133406 0.652307 -0.102134 0.994724 -0.009624
-0.052175 0.132760 0.652610 0.220291 0.975332 0.014125
-0.043768 0.129431 0.652970 0.122117 0.991624 0.042068
-0.036444 0.129647 0.652240 -0.070162 0.997456 0.012591
-0.028697 0.131279 0.652172 -0.245489 0.968936 0.029968
-0.020204 0.131308 0.652398 0.089442 0.993770 0.066498
-0.012118 0.129820 0.652337 0.129768 0.987598 0.088381
-0.004102 0.129594 0.652112 0.024774 0.996423 0.080798
0.004250 0.129425 0.652190 0.017465 0.994709 0.101238
0.012344 0.129285 0.651885 0.008633 0.995833 0.090787
0.020259 0.129269 0.652263 0.010312 0.993900 0.109805
0.028331 0.129092 0.652243 0.061474 0.992524 0.105434
0.034917 0.128703 0.651940 0.160257 0.980135 0.116850
-0.081622 -0.050016 0.659947 -0.756203 -0.648123 0.089964
-0.076189 -0.052003 0.659657 -0.100842 -0.994272 0.035424
-0.068063 -0.051919 0.659860 0.026699 -0.999302 0.026113
-0.059877 -0.051682 0.660021 0.025133 -0.999165 0.032209
-0.051937 -0.051501 0.660278 0.037744 -0.998969 0.025236
-0.044026 -0.051028 0.659986 0.064236 -0.997596 0.025987
-0.036096 -0.050661 0.659808 0.036438 -0.999000 0.025923
-0.028067 -0.050404 0.659674 0.029685 -0.999341 0.020871
-0.020054 -0.050187 0.659926 0.025354 -0.999517 0.017987
-0.012143 -0.050019 0.659962 0.017582 -0.999647 0.019906
-0.004167 -0.049886 0.660074 0.016863 -0.999447 0.028656
0.004038 -0.049986 0.660237 -0.026328 -0.999317 0.025947
0.012058 -0.049732 0.660071 0.249850 -0.967705 0.033495
0.016496 -0.048484 0.659363 0.587145 -0.808313 0.043473
-0.082060 -0.044178 0.660299 -0.990797 0.090970 0.100233
0.015695 -0.047882 0.662085 0.519627 -0.851432 0.071079
0.019485 -0.044675 0.660216 0.832111 -0.551244 0.061002
-0.080624 -0.038091 0.659848 -0.956693 0.280140 0.079116
-0.079225 -0.034311 0.660418 -0.942194 0.319937 0.099554
0.021594 -0.036121 0.659979 0.999334 0.010650 0.034887
-0.076920 -0.028029 0.660247 -0.912740 0.397690 0.093537
0.020205 -0.028217 0.660261 0.917293 0.382040 0.112338
-0.073869 -0.022407 0.660181 -0.724050 0.683271 0.094297
-0.068129 -0.020821 0.660225 -0.173716 0.980946 0.086996
-0.059926 -0.020344 0.660468 -0.088338 0.990586 0.104570
-0.052155 -0.018444 0.660281 -0.309233 0.943035 0.122720
-0.044717 -0.017102 0.660303 -0.135040 0.980818 0.140573
-0.035972 -0.017113 0.660174 0.034491 0.994288 0.101006
-0.028479 -0.016976 0.660729 -0.129856 0.982984 0.129922
-0.022651 -0.016634 0.661381 -0.438293 0.827697 0.350452
0.014601 -0.018581 0.660812 0.871234 0.297251 0.390632
0.016656 -0.022248 0.660138 0.854343 0.477017 0.206284
-0.042736 -0.015684 0.659761 -0.098464 0.989812 0.102841
-0.039707 -0.015905 0.657175 0.085584 0.995494 0.040831
-0.025391 -0.015525 0.658689 -0.443866 0.876448 0.186606
-0.020757 -0.011417 0.660967 -0.822774 0.173496 0.541241
0.013460 -0.011802 0.660770 0.842245 0.052656 0.536516
0.016558 -0.012364 0.657207 0.762971 0.084422 0.640897
-0.024393 -0.001203 0.657716 -0.880246 -0.295156 0.371551
-0.021628 -0.004061 0.660840 -0.836058 -0.209562 0.507042
0.013687 -0.004099 0.660837 0.840415 -0.067085 0.537775
0.016479 -0.003528 0.659045 0.766292 -0.048875 0.640630
-0.025294 0.004562 0.659280 -0.880379 -0.259740 0.396822
-0.022946 0.003152 0.662516 -0.767345 -0.248225 0.591241
0.014022 0.004010 0.660752 0.864133 -0.016242 0.503001
0.016358 0.005459 0.657631 0.883676 -0.020803 0.467636
-0.026376 0.012125 0.660479 -0.858044 -0.167400 0.485528
-0.023685 0.009260 0.663526 -0.737781 -0.164281 0.654745
0.014174 0.011903 0.661018 0.853799 -0.006927 0.520557
0.016472 0.011868 0.657192 0.927321 0.010528 0.374119
-0.027505 0.019987 0.660592 -0.858759 -0.111530 0.500094
0.013614 0.020108 0.660798 0.863151 0.088504 0.497129
0.016344 0.019678 0.658217 0.822083 0.105639 0.559482
-0.028265 0.027932 0.660605 -0.866626 -0.064191 0.494811
0.012753 0.027872 0.660829 0.856287 0.157026 0.492052
-0.028689 0.035975 0.660623 -0.860686 -0.085593 0.501890
0.007512 0.038600 0.663874 0.695669 0.156853 0.701029
0.010666 0.036217 0.660644 0.846576 0.209274 0.489401
-0.049950 0.047535 0.657767 -0.206250 -0.846984 0.489978
-0.042719 0.046280 0.659583 -0.389110 -0.754954 0.527861
-0.035856 0.045251 0.660697 -0.317257 -0.799271 0.510405
-0.030022 0.042376 0.661501 -0.669166 -0.485995 0.562162
0.007138 0.045142 0.662784 0.766635 0.240547 0.595321
0.009404 0.043377 0.659814 0.865112 0.257316 0.430545
-0.050117 0.051304 0.659319 -0.590442 -0.200990 0.781653
-0.044229 0.051747 0.661222 -0.291364 -0.137693 0.946651
-0.039157 0.051967 0.663407 -0.455447 -0.074050 0.887178
0.005950 0.052236 0.660912 0.829270 0.214201 0.516167
0.008329 0.050500 0.657592 0.893214 0.234268 0.383780
-0.049815 0.060347 0.659085 -0.667632 -0.090869 0.738925
-0.044178 0.060021 0.661194 -0.198064 0.015531 0.980066
-0.038979 0.060136 0.663070 -0.527140 0.017242 0.849604
0.004424 0.060156 0.660659 0.824850 0.076048 0.560213
0.008042 0.063732 0.657016 0.664180 -0.230087 0.711284
-0.064158 0.071575 0.656711 -0.397407 -0.357193 0.845270
-0.058630 0.070313 0.658619 -0.375751 -0.712550 0.592523
-0.051748 0.068222 0.660030 -0.333616 -0.362036 0.870420
-0.043881 0.068078 0.661496 -0.240605 -0.146587 0.959490
-0.039177 0.067502 0.663538 -0.426156 -0.104026 0.898649
0.004855 0.067991 0.661396 0.618141 -0.286019 0.732185
0.010169 0.070611 0.658357 0.498355 -0.722386 0.479375
0.019031 0.071762 0.657713 0.121971 -0.600890 0.789971
-0.065043 0.076030 0.658333 -0.802053 -0.309104 0.511044
-0.060102 0.075681 0.661901 -0.368313 -0.349844 0.861368
-0.051964 0.075646 0.663219 -0.017416 -0.282517 0.959104
-0.044349 0.075541 0.663497 -0.098449 -0.190931 0.976654
-0.039171 0.074107 0.663921 -0.157242 -0.064028 0.985482
0.006144 0.073561 0.663319 0.281177 -0.391678 0.876087
0.012394 0.074253 0.661535 0.213171 -0.693016 0.688686
0.019989 0.075016 0.660722 0.108073 -0.804991 0.583361
0.027391 0.076776 0.660311 0.503441 -0.628293 0.593123
0.032158 0.079329 0.656382 0.913062 -0.308126 0.267162
-0.117515 0.087392 0.656152 -0.118288 -0.919246 0.375492
-0.107538 0.087697 0.656903 -0.153676 -0.950600 0.269711
-0.099666 0.087510 0.658379 -0.043634 -0.969811 0.239922
-0.092222 0.087542 0.658106 0.024329 -0.968709 0.247004
-0.082704 0.086147 0.659526 -0.387010 -0.890725 0.238394
-0.075967 0.084831 0.660659 -0.082686 -0.958418 0.273126
-0.067676 0.083827 0.660340 -0.280759 -0.866173 0.413423
-0.060224 0.082681 0.662805 -0.293106 -0.327449 0.898257
-0.051741 0.082875 0.663710 0.042530 -0.175045 0.983641
-0.044413 0.083618 0.663752 -0.037416 -0.140445 0.989381
-0.038648 0.084744 0.663920 -0.098205 -0.169412 0.980640
0.022997 0.084290 0.663993 0.146774 0.010061 0.989119
0.028895 0.083973 0.661941 0.536912 -0.245767 0.807046
0.034612 0.086509 0.658494 0.488060 -0.748206 0.449427
-0.129928 0.094763 0.659406 -0.542791 -0.780861 0.309247
-0.124093 0.091760 0.660163 -0.373217 -0.862832 0.340926
-0.115982 0.090073 0.659827 -0.043646 -0.938936 0.341313
-0.108051 0.089747 0.660301 -0.114409 -0.935507 0.334270
-0.100174 0.088982 0.661542 -0.078990 -0.925968 0.369247
-0.091859 0.089020 0.661405 0.023876 -0.923111 0.383792
-0.085632 0.088981 0.661460 -0.257101 -0.883583 0.391382
-0.047700 0.088023 0.663718 0.128832 -0.571077 0.810724
0.029659 0.088601 0.663445 0.249549 -0.572328 0.781131
0.036815 0.089727 0.661483 0.434179 -0.738959 0.515197
0.041746 0.092992 0.659711 0.788526 -0.503201 0.353576
-0.136469 0.101964 0.658867 -0.913240 -0.316428 0.256644
-0.133366 0.099284 0.661349 -0.702950 -0.546310 0.455419
0.043683 0.099557 0.660739 0.935317 -0.190970 0.297847
-0.136943 0.108038 0.659633 -0.949901 -0.070786 0.304430
-0.135424 0.107342 0.662982 -0.824457 -0.084869 0.559525
0.044150 0.108056 0.660565 0.982772 0.010014 0.184551
-0.136799 0.114386 0.659336 -0.919480 0.247857 0.305163
-0.133691 0.116705 0.661582 -0.719744 0.498103 0.483593
0.043435 0.116015 0.660352 0.905928 0.284645 0.313483
-0.130085 0.121580 0.659606 -0.582084 0.756807 0.297357
-0.124292 0.124661 0.660443 -0.411779 0.849142 0.330751
-0.116078 0.126370 0.659987 -0.054220 0.944736 0.323318
-0.108167 0.126559 0.660409 -0.102829 0.934654 0.340363
-0.100701 0.127146 0.661945 -0.126114 0.905547 0.405067
-0.092126 0.126995 0.661908 0.030717 0.906185 0.421764
-0.084939 0.126985 0.661960 -0.236079 0.881552 0.408820
-0.049174 0.127964 0.663366 0.314299 0.925934 0.209434
-0.042846 0.127954 0.660231 0.107424 0.989950 0.091970
-0.035887 0.127860 0.660134 -0.055811 0.993353 0.100672
-0.031481 0.127792 0.658853 -0.109562 0.980114 0.165447
-0.017983 0.127622 0.663447 0.225740 0.880926 0.415947
-0.011266 0.126954 0.662181 0.138282 0.880488 0.453452
-0.004180 0.126816 0.661890 0.032872 0.877234 0.478936
0.003975 0.126767 0.661368 0.024654 0.889241 0.456774
0.011951 0.126623 0.661326 0.020287 0.881439 0.471863
0.020172 0.126471 0.661449 0.022145 0.868533 0.495137
0.028374 0.126240 0.661134 0.078664 0.870251 0.486287
0.036367 0.124668 0.660825 0.368510 0.801517 0.470925
0.041287 0.121774 0.659264 0.732237 0.582275 0.353249
-0.115830 0.128153 0.656284 -0.035483 0.969771 0.241423
-0.106710 0.128433 0.657114 -0.131996 0.959085 0.250467
-0.100155 0.128764 0.659014 -0.109810 0.964438 0.240420
-0.092039 0.128653 0.658707 0.041951 0.975507 0.215932
-0.082591 0.129817 0.659782 -0.450407 0.843508 0.292623
-0.075818 0.131136 0.660946 -0.119557 0.947146 0.297693
-0.067968 0.131620 0.660632 -0.063468 0.956545 0.284592
-0.059854 0.132305 0.660058 -0.054618 0.956978 0.284974
-0.052334 0.131720 0.660172 0.176025 0.946481 0.270536
-0.043432 0.128983 0.659210 0.091677 0.988877 0.117126
-0.036164 0.128955 0.659259 -0.033837 0.993476 0.108902
-0.028181 0.130131 0.659828 -0.174357 0.955384 0.238413
-0.020329 0.129917 0.659820 0.117149 0.949222 0.291982
-0.012321 0.128915 0.659075 0.148567 0.938601 0.311376
-0.004138 0.128655 0.658269 0.027629 0.948392 0.315894
0.003634 0.128538 0.658138 0.020677 0.948033 0.317499
0.011743 0.128714 0.657889 0.017664 0.951400 0.307452
0.019734 0.128542 0.657831 0.010725 0.952375 0.304741
0.027587 0.128638 0.657883 0.059111 0.940478 0.334676
0.033504 0.128584 0.656756 0.144276 0.946817 0.287613
-0.080837 -0.049400 0.667283 -0.803316 -0.559027 0.205357
-0.076294 -0.051621 0.668194 -0.248064 -0.964554 0.090004
-0.068002 -0.051873 0.667851 0.031822 -0.999435 0.010783
-0.060058 -0.051612 0.668043 0.035434 -0.999264 0.014721
-0.052053 -0.051312 0.668344 0.031580 -0.999160 0.026128
-0.044160 -0.050912 0.668243 0.053938 -0.998507 0.008623
-0.036003 -0.050621 0.668184 0.031958 -0.999487 -0.001891
-0.028013 -0.050344 0.668032 0.031082 -0.999516 0.001362
-0.020035 -0.050133 0.667880 0.027403 -0.999623 0.001881
-0.011996 -0.049957 0.667820 0.021086 -0.999766 -0.004768
-0.004049 -0.049745 0.667617 0.024252 -0.999692 -0.005196
0.004051 -0.049820 0.667641 -0.021838 -0.999656 0.014534
0.011852 -0.049426 0.668062 0.296529 -0.952642 0.067413
0.016280 -0.048236 0.664387 0.639210 -0.763385 0.093027
-0.080923 -0.044592 0.667657 -0.967157 0.098964 0.234122
-0.079518 -0.042271 0.670349 -0.936631 0.220396 0.272301
0.015293 -0.047577 0.669125 0.550444 -0.828434 0.103485
0.018804 -0.044213 0.668010 0.816984 -0.557733 0.146532
-0.080318 -0.039251 0.665467 -0.942395 0.266777 0.201799
-0.078319 -0.035866 0.668241 -0.921793 0.302645 0.242287
0.021134 -0.036326 0.668465 0.979093 0.038544 0.199728
-0.075351 -0.027825 0.668060 -0.856548 0.438494 0.272120
-0.069135 -0.024502 0.670989 -0.283076 0.812876 0.509020
-0.061595 -0.024029 0.671517 -0.051449 0.822911 0.565836
0.014676 -0.024930 0.670516 0.553560 0.682523 0.477215
0.018674 -0.028567 0.668339 0.826487 0.414632 0.380788
-0.073076 -0.023037 0.666875 -0.663431 0.695107 0.276921
-0.068103 -0.022256 0.668340 -0.193701 0.901370 0.387314
-0.060038 -0.021887 0.668515 -0.064057 0.918608 0.389944
-0.052085 -0.020446 0.668764 -0.304034 0.836964 0.455032
-0.043849 -0.018394 0.668144 -0.112118 0.926903 0.358163
-0.036040 -0.018372 0.668254 -0.023385 0.960007 0.278997
-0.027920 -0.018052 0.668476 -0.070757 0.957923 0.278166
-0.020126 -0.017264 0.668416 -0.197951 0.891020 0.408533
-0.011930 -0.016950 0.670596 -0.063951 0.718365 0.692721
-0.003533 -0.017344 0.670472 0.105698 0.605619 0.788704
0.004419 -0.018347 0.669666 0.252391 0.549465 0.796484
0.011335 -0.020078 0.667547 0.525130 0.558948 0.641729
0.016253 -0.023767 0.665736 0.678832 0.627849 0.380778
-0.017507 -0.012098 0.665391 -0.596761 0.218314 0.772150
-0.012046 -0.011905 0.667956 -0.244123 0.215375 0.945525
-0.004045 -0.011920 0.668552 0.025042 0.131798 0.990960
0.003930 -0.011933 0.667651 0.242222 0.124987 0.962137
0.009711 -0.012174 0.665319 0.536693 0.122881 0.834782
-0.017886 -0.003737 0.665523 -0.554240 -0.151437 0.818465
-0.012090 -0.004030 0.667982 -0.249769 -0.087835 0.964313
-0.004043 -0.003996 0.668764 0.026864 -0.074122 0.996887
0.003966 -0.003997 0.667608 0.262176 -0.058774 0.963229
0.009860 -0.003817 0.665336 0.519504 -0.074240 0.851237
-0.019237 0.004170 0.666294 -0.513936 -0.168328 0.841151
-0.012018 0.004017 0.668920 -0.170070 -0.102381 0.980099
-0.004056 0.004048 0.669324 0.042333 -0.051995 0.997750
0.003949 0.004003 0.668117 0.254533 -0.039934 0.966239
0.010089 0.003822 0.665632 0.550842 -0.010087 0.834548
-0.024548 0.013992 0.664394 -0.665586 -0.111573 0.737934
-0.020031 0.012059 0.666919 -0.476921 -0.098152 0.873448
-0.012002 0.012033 0.669493 -0.126132 -0.047323 0.990884
-0.004016 0.012001 0.669642 0.063243 -0.028603 0.997588
0.003942 0.012050 0.668326 0.266848 -0.029848 0.963276
0.010188 0.012074 0.665697 0.549853 -0.034280 0.834558
-0.024761 0.020739 0.664794 -0.661722 -0.087801 0.744590
-0.020041 0.020011 0.667621 -0.423999 -0.064303 0.903377
-0.012091 0.019991 0.669766 -0.097878 -0.026287 0.994851
-0.004083 0.020022 0.669793 0.075552 -0.006833 0.997118
0.003942 0.019988 0.668430 0.277571 0.027871 0.960301
0.009910 0.019664 0.665731 0.580489 0.070581 0.811204
-0.025159 0.028269 0.665107 -0.648436 -0.052002 0.759491
-0.020038 0.028003 0.668067 -0.385286 -0.035602 0.922110
-0.012022 0.028017 0.669901 -0.071199 -0.004369 0.997453
-0.004138 0.027988 0.669767 0.096633 0.016760 0.995179
0.003851 0.028008 0.668090 0.327059 0.042213 0.944061
0.009474 0.027404 0.665381 0.593572 0.079286 0.800865
-0.025364 0.036192 0.665315 -0.625769 -0.038632 0.779051
-0.019977 0.035994 0.668254 -0.353447 0.004880 0.935442
-0.011964 0.035996 0.669819 -0.055326 0.026784 0.998109
-0.004115 0.035946 0.669516 0.129805 0.049364 0.990310
0.003853 0.035928 0.667342 0.412792 0.125865 0.902087
0.008865 0.033704 0.664929 0.634512 0.182459 0.751068
-0.034127 0.047141 0.664430 -0.250318 -0.395429 0.883729
-0.027190 0.044738 0.665675 -0.404084 -0.226373 0.886268
-0.020081 0.044009 0.668208 -0.278109 -0.009936 0.960498
-0.012054 0.043858 0.669540 -0.035706 0.054782 0.997860
-0.004065 0.044016 0.668966 0.162874 0.077298 0.983614
0.003335 0.043799 0.666563 0.475618 0.127483 0.870365
0.008077 0.041605 0.664445 0.665806 0.179987 0.724091
-0.040411 0.050260 0.664074 -0.394608 -0.133188 0.909145
-0.035579 0.051901 0.664902 -0.239342 -0.060443 0.969052
-0.027955 0.051985 0.666417 -0.225577 -0.037507 0.973503
-0.019983 0.051947 0.668121 -0.174891 0.026098 0.984242
-0.012001 0.051972 0.668988 -0.016716 0.065632 0.997704
-0.004141 0.051926 0.668218 0.228329 0.118765 0.966313
0.002039 0.051666 0.665799 0.517125 0.181257 0.836497
-0.035187 0.059974 0.664615 -0.236621 0.036449 0.970918
-0.028114 0.060030 0.666158 -0.219616 0.035911 0.974925
-0.019991 0.059986 0.667757 -0.146877 0.054734 0.987639
-0.012053 0.060023 0.668384 0.013678 0.085291 0.996262
-0.004149 0.059936 0.667210 0.286159 0.112010 0.951613
0.001091 0.059487 0.665068 0.534554 0.128334 0.835334
-0.040436 0.070406 0.664029 -0.215666 -0.130451 0.967714
-0.035334 0.068083 0.664548 -0.196041 -0.020264 0.980386
-0.028003 0.067981 0.666023 -0.191302 0.024300 0.981230
-0.020019 0.068063 0.667274 -0.109592 0.077407 0.990958
-0.012035 0.068017 0.667588 0.055055 0.115848 0.991740
-0.004059 0.068016 0.666208 0.265784 0.083127 0.960442
0.000957 0.068366 0.664580 0.397988 -0.034691 0.916735
-0.056094 0.076039 0.664002 -0.136163 -0.168574 0.976239
-0.052237 0.075676 0.664054 -0.051626 -0.202212 0.977980
-0.041164 0.077829 0.664247 -0.165907 -0.134877 0.976874
-0.035905 0.076796 0.666544 -0.189638 -0.458434 0.868260
-0.028314 0.076448 0.666824 0.017206 -0.290879 0.956605
-0.019945 0.076039 0.666473 -0.038001 0.088063 0.995390
-0.012007 0.075980 0.666538 0.040696 0.127707 0.990977
-0.004027 0.075945 0.665796 0.125132 0.028160 0.991740
0.003553 0.076515 0.664901 0.137767 -0.154998 0.978262
0.011888 0.078177 0.664616 0.061183 -0.263612 0.962687
0.019831 0.078753 0.664463 0.071616 -0.268857 0.960514
0.025041 0.079062 0.664222 0.215619 -0.175984 0.960488
-0.081218 0.086999 0.665379 -0.318919 -0.782353 0.534991
-0.075765 0.086850 0.665922 -0.070690 -0.811023 0.580728
-0.067927 0.086560 0.666129 -0.062476 -0.808471 0.585211
-0.059845 0.086353 0.666649 -0.066440 -0.794661 0.603407
-0.052508 0.086577 0.666892 0.094956 -0.812828 0.574712
-0.043688 0.086984 0.667243 -0.053579 -0.933519 0.354501
-0.036204 0.084526 0.667556 -0.139715 -0.763480 0.630537
-0.027868 0.084835 0.667381 -0.018587 -0.669099 0.742940
-0.020154 0.084505 0.666645 0.068730 -0.317190 0.945868
-0.012055 0.084019 0.665729 0.053495 -0.014924 0.998457
-0.004065 0.084052 0.665402 0.038205 -0.013585 0.999178
0.003971 0.084002 0.665151 0.034265 -0.040147 0.998606
0.012044 0.084014 0.664884 0.031595 -0.062607 0.997538
0.019927 0.083976 0.664613 0.061684 -0.068736 0.995726
0.025104 0.083737 0.664254 0.190451 -0.112738 0.975202
-0.128646 0.095401 0.664315 -0.490225 -0.669303 0.558313
-0.122774 0.094143 0.666052 -0.279853 -0.729390 0.624237
-0.116029 0.093657 0.666563 -0.033511 -0.753449 0.656651
-0.108017 0.093448 0.667008 -0.116404 -0.740731 0.661640
-0.099971 0.092664 0.667942 -0.057682 -0.736645 0.673815
-0.092040 0.092834 0.667756 0.036147 -0.733807 0.678396
-0.083827 0.092146 0.668257 -0.315112 -0.675874 0.666257
-0.076047 0.090695 0.669587 -0.061953 -0.687416 0.723617
-0.068159 0.090342 0.669786 -0.089443 -0.685800 0.722273
-0.060305 0.089615 0.670436 -0.079815 -0.714132 0.695446
-0.052012 0.089329 0.670489 -0.028973 -0.742454 0.669271
-0.044988 0.089074 0.670035 -0.159344 -0.858758 0.486974
-0.036163 0.088218 0.669692 -0.000922 -0.983703 0.179800
-0.028647 0.088181 0.669944 -0.037507 -0.972874 0.228275
-0.017983 0.090188 0.669336 0.439012 -0.669587 0.599101
-0.011841 0.091977 0.668421 0.103959 -0.591459 0.799605
-0.004045 0.092108 0.668087 0.035094 -0.588005 0.808095
0.003990 0.092091 0.667816 0.030295 -0.541182 0.840360
0.012019 0.092114 0.667568 0.032316 -0.525741 0.850031
0.019994 0.092144 0.667325 0.034412 -0.514392 0.856865
0.027854 0.092246 0.667036 0.074314 -0.572846 0.816287
0.035570 0.093294 0.666509 0.314937 -0.602070 0.733708
0.040646 0.094858 0.664900 0.661489 -0.465705 0.587836
-0.130447 0.100849 0.666322 -0.567989 -0.440610 0.695163
-0.124341 0.099505 0.669474 -0.396155 -0.454310 0.797912
-0.116034 0.098671 0.670800 -0.028785 -0.450786 0.892168
-0.108401 0.098327 0.670955 -0.086981 -0.464667 0.881203
-0.100461 0.097054 0.671360 -0.100016 -0.543391 0.833500
-0.091910 0.097087 0.671326 0.046760 -0.541671 0.839289
-0.085570 0.097217 0.671247 -0.187436 -0.509548 0.839779
-0.048366 0.097399 0.671701 0.347110 -0.030749 0.937320
-0.045703 0.097152 0.671743 0.000356 0.013139 0.999914
-0.010502 0.096258 0.671765 0.048491 -0.712181 0.700319
-0.002729 0.096354 0.671491 0.099099 -0.693442 0.713665
0.004467 0.097343 0.671283 0.086408 -0.473765 0.876402
0.012780 0.099153 0.671141 0.142352 -0.281668 0.948893
0.020087 0.100033 0.670632 0.056798 -0.216916 0.974537
0.028105 0.099880 0.670464 -0.030269 -0.206756 0.977924
0.036047 0.099812 0.669903 0.319780 -0.301869 0.898118
0.041519 0.100467 0.666478 0.746494 -0.246589 0.618013
-0.131596 0.107970 0.667488 -0.646353 -0.042521 0.761852
-0.126136 0.107825 0.671065 -0.478826 -0.035574 0.877189
0.013990 0.108027 0.671334 0.224369 0.015434 0.974382
0.020317 0.107988 0.671003 0.062349 -0.014192 0.997954
0.028118 0.107866 0.670986 -0.021284 -0.009973 0.999724
0.036411 0.108073 0.670796 0.290479 0.040379 0.956029
0.041944 0.107734 0.667107 0.765237 0.035439 0.642772
-0.130683 0.115093 0.666653 -0.591477 0.358517 0.722233
-0.124471 0.116541 0.669778 -0.395775 0.398524 0.827370
-0.116131 0.117830 0.670811 -0.031844 0.425204 0.904537
-0.108721 0.117995 0.670951 -0.084151 0.451764 0.888160
-0.101139 0.119080 0.671332 -0.127914 0.522999 0.842680
-0.091466 0.119174 0.671384 0.051396 0.522018 0.851384
-0.085173 0.119007 0.671345 -0.198686 0.497845 0.844200
-0.048786 0.119246 0.671613 0.427158 0.109848 0.897480
-0.045170 0.119114 0.671580 -0.009795 0.044668 0.998954
-0.011666 0.119457 0.671271 0.153069 0.637646 0.754968
-0.003501 0.119374 0.670762 0.084049 0.676462 0.731666
0.004794 0.118007 0.670965 0.090712 0.490151 0.866905
0.012673 0.116524 0.670812 0.151500 0.339174 0.928444
0.019977 0.116009 0.670172 0.058696 0.251770 0.966006
0.027953 0.115998 0.670027 -0.017414 0.260338 0.965360
0.035880 0.115754 0.669435 0.280209 0.356020 0.891478
0.041356 0.114893 0.666013 0.721966 0.310257 0.618471
-0.128615 0.120285 0.664537 -0.501492 0.646055 0.575430
-0.123320 0.121971 0.666380 -0.350838 0.673553 0.650568
-0.116064 0.122605 0.667099 -0.044866 0.702045 0.710718
-0.107953 0.122604 0.667504 -0.099707 0.694504 0.712546
-0.100134 0.123203 0.668569 -0.095247 0.687611 0.719805
-0.092130 0.123007 0.668351 0.046623 0.680046 0.731685
-0.083738 0.123762 0.668386 -0.300738 0.666292 0.682358
-0.076099 0.125353 0.669560 -0.109230 0.720343 0.684963
-0.068171 0.125570 0.669753 -0.070782 0.727249 0.682715
-0.060164 0.126382 0.670504 -0.088046 0.710771 0.697891
-0.051648 0.126016 0.670494 0.046452 0.644324 0.763341
-0.045304 0.123935 0.670363 -0.161393 0.199942 0.966424
-0.035961 0.127599 0.667076 -0.009144 0.981590 0.190782
-0.028430 0.127591 0.666814 -0.005057 0.980051 0.198682
-0.018124 0.124844 0.668987 0.631733 0.532297 0.563536
-0.011956 0.123509 0.667620 0.227044 0.705275 0.671594
-0.004061 0.123114 0.667573 0.051673 0.732412 0.678898
0.003919 0.122803 0.667500 0.044536 0.678873 0.732904
0.012020 0.122647 0.667281 0.046191 0.641142 0.766031
0.019981 0.122681 0.667045 0.032106 0.603530 0.796694
0.027908 0.122425 0.666757 0.065997 0.618963 0.782642
0.035039 0.121765 0.666066 0.257178 0.634769 0.728648
-0.081060 0.128896 0.665564 -0.403087 0.710373 0.576968
-0.076042 0.129213 0.665888 -0.114938 0.769843 0.627798
-0.067908 0.129303 0.666043 -0.065602 0.773393 0.630523
-0.060032 0.129517 0.666659 -0.074180 0.817385 0.571296
-0.052729 0.129469 0.666837 0.053744 0.827235 0.559279
-0.044520 0.128841 0.668345 -0.144351 0.939023 0.312086
-0.036045 0.128853 0.668059 0.011862 0.997778 0.065570
-0.028402 0.128821 0.667762 -0.008063 0.991499 0.129868
-0.021087 0.128731 0.667843 0.061533 0.985909 0.155553
-0.080093 -0.048286 0.673814 -0.777538 -0.572544 0.260053
-0.075952 -0.050483 0.676183 -0.457363 -0.827804 0.324899
-0.068023 -0.051495 0.676579 -0.001366 -0.976357 0.216159
-0.060041 -0.051325 0.676402 0.029241 -0.983387 0.179153
-0.051991 -0.051066 0.676637 0.028701 -0.986433 0.161638
-0.044007 -0.050838 0.676823 0.023138 -0.987234 0.157589
-0.036131 -0.050684 0.676957 0.023134 -0.985942 0.165477
-0.028080 -0.050488 0.676962 0.027963 -0.987241 0.156760
-0.020004 -0.050268 0.676764 0.027207 -0.986649 0.160572
-0.011962 -0.050135 0.676693 0.018063 -0.984477 0.174581
-0.004032 -0.049973 0.676700 0.030410 -0.976867 0.211674
0.004099 -0.049712 0.676419 0.060822 -0.973012 0.222594
0.010946 -0.049062 0.676114 0.349334 -0.887089 0.301727
-0.080333 -0.046691 0.672807 -0.888583 -0.348548 0.298218
-0.078000 -0.043965 0.676458 -0.885464 0.136023 0.444355
0.013954 -0.044419 0.678136 0.609795 -0.215735 0.762632
0.017620 -0.043030 0.674950 0.784914 -0.296055 0.544299
-0.075156 -0.036152 0.676722 -0.674813 0.366741 0.640413
-0.068169 -0.034450 0.679024 -0.092648 0.387156 0.917348
-0.060356 -0.034018 0.679314 -0.050031 0.368556 0.928258
-0.052996 -0.033167 0.679536 -0.101131 0.403659 0.909303
-0.043872 -0.032451 0.679707 -0.013746 0.433845 0.900883
-0.035952 -0.032424 0.679755 -0.012792 0.435605 0.900047
-0.028877 -0.032366 0.679782 -0.010125 0.436132 0.899826
-0.020498 -0.032329 0.679757 -0.006631 0.451183 0.892407
-0.011973 -0.032358 0.679819 0.029076 0.438546 0.898238
-0.003452 -0.033072 0.679639 0.041768 0.332883 0.942043
0.004395 -0.034029 0.679456 0.115655 0.288790 0.950381
0.012259 -0.035824 0.678083 0.359326 0.261848 0.895724
0.019087 -0.036854 0.675982 0.573582 -0.151673 0.804984
-0.073565 -0.029186 0.674383 -0.603341 0.488706 0.630195
-0.068013 -0.028176 0.675789 -0.128616 0.551494 0.824204
-0.060062 -0.028145 0.676271 -0.041796 0.547110 0.836016
-0.052037 -0.028145 0.676662 -0.094466 0.538502 0.837312
-0.044023 -0.027824 0.677283 -0.057649 0.366722 0.928543
-0.036036 -0.027859 0.677425 -0.002225 0.353011 0.935616
-0.028058 -0.027873 0.677450 -0.000571 0.375014 0.927019
-0.020055 -0.027805 0.677411 0.005264 0.392581 0.919702
-0.011977 -0.027861 0.677431 -0.003596 0.404736 0.914426
-0.004045 -0.027952 0.677671 -0.032391 0.359402 0.932621
0.003907 -0.028017 0.677506 0.108643 0.378407 0.919241
0.011786 -0.028387 0.675708 0.365941 0.403817 0.838462
0.016855 -0.029763 0.673128 0.672190 0.335011 0.660248
-0.067249 -0.023642 0.672480 -0.120466 0.742330 0.659116
-0.059804 -0.023337 0.672672 -0.035242 0.729627 0.682936
-0.050451 -0.022480 0.673484 -0.343932 0.545768 0.764100
-0.043875 -0.021995 0.675193 -0.134787 0.473191 0.870588
-0.035884 -0.021656 0.675359 -0.014901 0.435987 0.899830
-0.027985 -0.021443 0.675318 0.001502 0.392190 0.919883
-0.020069 -0.021055 0.675001 0.007913 0.412786 0.910794
-0.012094 -0.020974 0.674837 0.001282 0.426041 0.904703
-0.004295 -0.021319 0.674861 0.051219 0.533492 0.844253
0.003311 -0.022216 0.674342 0.175516 0.633669 0.753430
0.009572 -0.023184 0.673401 0.307379 0.683832 0.661734
-0.042670 0.087660 0.673798 -0.130888 -0.860350 0.492612
-0.036055 0.087655 0.673670 -0.000662 -0.886857 0.462044
-0.027850 0.087595 0.673691 0.002771 -0.869991 0.493059
-0.021161 0.087608 0.673857 0.222644 -0.779713 0.585216
-0.100044 0.095000 0.672084 -0.083910 -0.542364 0.835943
-0.081158 0.094785 0.673154 -0.351905 -0.591084 0.725798
-0.075803 0.094582 0.673440 -0.062738 -0.652565 0.755131
-0.067855 0.094212 0.673637 -0.074235 -0.635506 0.768519
-0.059941 0.093473 0.673925 -0.065185 -0.565684 0.822041
-0.052188 0.093143 0.673967 0.028934 -0.522332 0.852251
-0.043759 0.091331 0.675013 -0.289841 -0.317115 0.903012
-0.036006 0.091268 0.675444 0.017330 -0.252336 0.967484
-0.028026 0.091250 0.675281 0.031034 -0.232135 0.972188
-0.020328 0.091433 0.674712 0.248352 -0.254595 0.934614
-0.012881 0.095305 0.672703 0.102117 -0.600519 0.793063
-0.005767 0.095581 0.672527 0.050672 -0.648098 0.759870
-0.121871 0.102797 0.672822 -0.246746 -0.394210 0.885277
-0.115909 0.102507 0.673062 -0.030594 -0.431847 0.901428
-0.107504 0.101992 0.673059 -0.101257 -0.378752 0.919942
-0.099942 0.100527 0.673564 -0.062404 -0.366112 0.928476
-0.092123 0.100895 0.673383 0.052733 -0.351193 0.934817
-0.083449 0.100599 0.674288 -0.340765 -0.313422 0.886367
-0.075998 0.099927 0.676455 -0.071140 -0.318310 0.945314
-0.067968 0.099974 0.676790 -0.036940 -0.302258 0.952510
-0.060020 0.100051 0.677111 -0.041459 -0.311500 0.949341
-0.052037 0.099945 0.676565 0.283589 -0.280410 0.917032
-0.043687 0.100247 0.674183 -0.149435 -0.240061 0.959187
-0.036006 0.099943 0.675175 0.019900 -0.241287 0.970250
-0.027984 0.099926 0.674917 0.027981 -0.232543 0.972183
-0.019939 0.099923 0.674663 0.043902 -0.259658 0.964702
-0.012034 0.099868 0.674320 0.036685 -0.346498 0.937333
-0.004090 0.100011 0.674131 0.073686 -0.351318 0.933352
0.003640 0.100982 0.673129 0.178681 -0.279821 0.943278
0.010215 0.101378 0.672736 0.133915 -0.215889 0.967191
0.034020 0.102996 0.672149 0.040664 -0.113647 0.992689
-0.122244 0.108046 0.672996 -0.273236 -0.036588 0.961251
-0.116014 0.108013 0.673515 -0.024696 -0.039144 0.998928
-0.107993 0.107967 0.673780 -0.093898 -0.027588 0.995200
-0.100052 0.107851 0.674985 -0.071388 -0.021968 0.997207
-0.092036 0.107957 0.674656 0.059301 -0.009277 0.998197
-0.083899 0.107946 0.675154 -0.267778 -0.003817 0.963473
-0.076021 0.108061 0.677212 -0.068679 0.026625 0.997283
-0.068085 0.108068 0.677486 -0.066342 0.021228 0.997571
-0.060090 0.108002 0.678424 -0.076761 -0.003995 0.997042
-0.052020 0.107939 0.677905 0.293028 -0.000918 0.956103
-0.043721 0.107862 0.675364 -0.152003 0.001040 0.988379
-0.035993 0.107944 0.676402 0.023891 0.008967 0.999674
-0.028041 0.107868 0.676122 0.029789 0.008147 0.999523
-0.020000 0.107921 0.675863 0.037486 0.013892 0.999201
-0.011996 0.107882 0.675545 0.036829 0.014667 0.999214
-0.004088 0.107949 0.675277 0.060097 0.020147 0.997989
0.003964 0.107893 0.673848 0.174817 0.021205 0.984373
0.011179 0.107865 0.673083 0.176027 0.011476 0.984319
0.019079 0.107731 0.672164 0.070647 -0.053179 0.996083
0.025640 0.107776 0.672062 0.040014 0.025158 0.998882
0.034307 0.107679 0.672225 0.045782 0.018787 0.998775
-0.121904 0.113346 0.672950 -0.283330 0.259758 0.923174
-0.116011 0.113625 0.673236 -0.027044 0.287922 0.957272
-0.107584 0.114083 0.673231 -0.092456 0.296141 0.950659
-0.099955 0.115430 0.673724 -0.071404 0.339244 0.937985
-0.092098 0.115235 0.673439 0.055146 0.331785 0.941742
-0.083480 0.115416 0.674245 -0.346601 0.278710 0.895650
-0.075990 0.115779 0.676522 -0.087094 0.237686 0.967430
-0.067998 0.115765 0.676862 -0.047138 0.235617 0.970702
-0.059998 0.115845 0.677250 -0.042899 0.294122 0.954805
-0.051964 0.115811 0.676650 0.288756 0.285852 0.913733
-0.043332 0.115512 0.674220 -0.187433 0.244123 0.951458
-0.036006 0.115914 0.675017 0.018164 0.234799 0.971874
-0.027939 0.115942 0.674710 0.030844 0.229414 0.972840
-0.019993 0.115944 0.674398 0.054612 0.244780 0.968040
-0.012042 0.115656 0.674185 0.044304 0.324330 0.944906
-0.004155 0.115488 0.673978 0.068161 0.348355 0.934881
0.003365 0.114314 0.673081 0.174940 0.303452 0.936650
0.010133 0.114082 0.672628 0.138664 0.247939 0.958800
-0.100540 0.120224 0.672208 -0.114864 0.518407 0.847385
-0.081116 0.121070 0.673523 -0.487212 0.496603 0.718338
-0.075837 0.121380 0.673941 -0.103627 0.592442 0.798921
-0.067886 0.121606 0.674155 -0.049485 0.582197 0.811541
-0.059941 0.122363 0.674115 -0.044393 0.555881 0.830076
-0.051982 0.122454 0.673972 0.121487 0.449008 0.885230
-0.043392 0.123911 0.674471 -0.202925 -0.262632 0.943317
-0.035982 0.123768 0.674746 0.012482 -0.256279 0.966522
-0.027986 0.123759 0.674594 0.031484 -0.255149 0.966389
-0.020348 0.123909 0.674151 0.215475 -0.205672 0.954604
-0.012307 0.120857 0.672394 0.145198 0.479867 0.865243
-0.003554 0.120346 0.672100 0.080030 0.600074 0.795931
-0.042430 0.128543 0.673702 -0.340859 0.651672 0.677598
-0.036034 0.128444 0.673863 0.024281 0.751429 0.659367
-0.028177 0.128472 0.673633 0.027508 0.728432 0.684565
-0.021289 0.128424 0.673307 0.113947 0.800565 0.588313
-0.073996 -0.049295 0.681119 -0.304733 -0.491120 0.816051
-0.067985 -0.049538 0.681597 -0.042005 -0.559359 0.827860
-0.060013 -0.049517 0.681728 -0.007607 -0.577177 0.816584
-0.051998 -0.049486 0.681747 -0.003524 -0.616389 0.787434
-0.044078 -0.049384 0.681821 0.008169 -0.634906 0.772546
-0.036000 -0.049290 0.681772 0.014776 -0.655064 0.755429
-0.028014 -0.049184 0.681704 0.021186 -0.656627 0.753918
-0.019977 -0.049072 0.681551 0.027870 -0.671414 0.740558
-0.011982 -0.048968 0.681376 0.035941 -0.676261 0.735785
-0.004168 -0.048814 0.681193 0.044049 -0.667821 0.743018
0.003561 -0.048726 0.680839 0.100909 -0.621630 0.776784
0.009413 -0.048494 0.680412 0.299532 -0.443664 0.844655
-0.074282 -0.044486 0.681382 -0.381337 0.114710 0.917292
-0.068014 -0.044060 0.682178 -0.060658 0.143391 0.987805
-0.060039 -0.044063 0.682454 -0.028948 0.127255 0.991448
-0.051974 -0.044070 0.682894 -0.064506 0.065025 0.995796
-0.043967 -0.044103 0.683137 -0.002532 0.034283 0.999409
-0.036005 -0.044081 0.683154 0.000193 0.019151 0.999817
-0.027956 -0.044057 0.683141 0.004226 -0.001579 0.999990
-0.020008 -0.044116 0.683092 0.009603 -0.029976 0.999504
-0.011984 -0.044081 0.682982 0.039147 -0.058382 0.997526
-0.004016 -0.044081 0.682457 0.059208 -0.021864 0.998006
0.003965 -0.044137 0.681924 0.122378 -0.020735 0.992267
0.010155 -0.044174 0.680778 0.319770 -0.023061 0.947214
-0.073137 -0.039157 0.680348 -0.276810 0.335901 0.900304
-0.067944 -0.038342 0.680599 -0.070662 0.330883 0.941022
-0.059914 -0.037871 0.680712 -0.040139 0.328751 0.943563
-0.051923 -0.036837 0.681124 -0.091678 0.321711 0.942389
-0.044056 -0.036370 0.681258 -0.011564 0.323675 0.946098
-0.035936 -0.036331 0.681351 -0.011416 0.320833 0.947067
-0.027856 -0.036206 0.681378 -0.008452 0.317579 0.948194
-0.019923 -0.036120 0.681401 -0.004324 0.312284 0.949979
-0.011988 -0.036134 0.681431 0.023828 0.309623 0.950561
-0.004116 -0.036814 0.680975 0.079423 0.296094 0.951851
0.003635 -0.037770 0.680766 0.101751 0.280332 0.954495
0.009068 -0.038872 0.680325 0.228285 0.243827 0.942568
0.019643 -0.036816 0.680704 0.019251 -0.530588 0.847411
-0.034996 -0.031900 0.680010 -0.021440 0.444650 0.895448
-0.024563 -0.031934 0.680117 -0.015878 0.408336 0.912694
-0.020031 -0.031847 0.680109 -0.009143 0.412306 0.911000
-0.012658 -0.031737 0.680106 0.013910 0.410558 0.911728
-0.007461 -0.031749 0.680130 0.077626 0.417877 0.905181
