x y z nx ny nz
-0.128056 0.078637 0.631803 -0.988568 0.150230 -0.012794
-0.126217 0.077860 0.631713 0.759340 -0.648862 -0.048799
-0.126158 0.082285 0.631682 -0.984544 -0.154627 -0.082246
-0.021886 0.158296 0.631105 0.927547 0.357148 -0.110008
-0.024253 0.163561 0.631518 0.914385 0.383305 -0.130294
-0.023226 0.162551 0.631838 0.914344 0.382917 -0.131717
0.021291 -0.155277 0.638850 -0.692699 -0.692851 -0.200312
0.028717 -0.156180 0.637299 0.340680 -0.940177 0.002023
0.035693 -0.153495 0.636228 0.362097 -0.932105 -0.008107
0.040520 -0.152199 0.636222 0.359474 -0.933145 -0.004438
0.019767 -0.149013 0.637342 -0.909900 -0.304543 -0.281667
0.039358 -0.151767 0.636777 0.358766 -0.933407 -0.006165
0.043747 -0.150373 0.636366 0.369749 -0.929097 -0.008066
0.049998 -0.147412 0.637804 0.750499 -0.632986 -0.189947
0.015728 -0.140404 0.639183 -0.931352 -0.297926 -0.209343
0.017831 -0.141671 0.637364 -0.921242 -0.307431 -0.238328
0.047544 -0.136981 0.637165 0.887149 0.369931 -0.275893
0.049750 -0.140678 0.638445 0.908478 0.336142 -0.248348
0.013061 -0.131044 0.639088 -0.925024 -0.309374 -0.220496
0.045857 -0.132112 0.638012 0.894541 0.375071 -0.243141
0.048487 -0.135971 0.639729 0.919052 0.373846 -0.124828
0.011088 -0.125805 0.639102 -0.925427 -0.317006 -0.207585
0.042669 -0.123936 0.638658 0.901207 0.374289 -0.218482
0.006924 -0.114634 0.639847 -0.923971 -0.310405 -0.223442
0.009460 -0.118635 0.638442 -0.921768 -0.298003 -0.248068
0.038535 -0.114432 0.638708 0.890027 0.389328 -0.237226
0.040371 -0.118517 0.638695 0.894014 0.384358 -0.230235
0.005260 -0.108956 0.639445 -0.912973 -0.330783 -0.238880
0.035789 -0.108014 0.638891 0.894010 0.385006 -0.229163
0.002891 -0.101472 0.639208 -0.908628 -0.353602 -0.222174
0.029548 -0.098676 0.636662 0.843126 0.346198 -0.411444
0.033004 -0.100908 0.639526 0.873359 0.383920 -0.299751
0.028191 -0.092501 0.637686 0.865965 0.328759 -0.376859
0.025715 -0.084190 0.638449 0.894524 0.330443 -0.301055
-0.009122 -0.073536 0.639477 -0.880952 -0.386477 -0.273055
-0.006983 -0.076915 0.638778 -0.895099 -0.380972 -0.231640
0.022937 -0.074923 0.639511 0.913905 0.341616 -0.219263
0.024018 -0.078731 0.638958 0.912126 0.319855 -0.256357
-0.011379 -0.067111 0.639092 -0.896032 -0.367722 -0.248810
0.019160 -0.067780 0.638037 0.897665 0.331405 -0.290462
-0.013655 -0.059606 0.638046 -0.890777 -0.371062 -0.262352
0.015787 -0.056576 0.639275 0.926800 0.346077 -0.145852
0.017056 -0.060596 0.638549 0.903235 0.323891 -0.281533
-0.019103 -0.049136 0.639636 -0.906916 -0.349729 -0.234930
0.013958 -0.051685 0.639149 0.911500 0.352260 -0.212323
-0.020716 -0.043050 0.638550 -0.895749 -0.352294 -0.271152
0.005974 -0.040918 0.635541 0.812835 0.340190 -0.472833
0.011762 -0.045620 0.639535 0.910179 0.356474 -0.210953
-0.024946 -0.034405 0.639582 -0.888267 -0.345117 -0.303112
-0.023119 -0.038198 0.639006 -0.879776 -0.342429 -0.329751
0.006108 -0.035539 0.637644 0.861498 0.338765 -0.378232
-0.027322 -0.028187 0.639768 -0.904397 -0.325620 -0.275749
0.003148 -0.027264 0.638029 0.863490 0.357711 -0.355568
-0.029967 -0.020242 0.639602 -0.896923 -0.304279 -0.320848
-0.000427 -0.017512 0.639072 0.882651 0.386258 -0.267829
0.001186 -0.021453 0.638784 0.881141 0.380957 -0.280112
-0.032358 -0.011811 0.639076 -0.891013 -0.313395 -0.328449
-0.031447 -0.015434 0.639362 -0.890132 -0.301594 -0.341622
-0.002533 -0.012541 0.639344 0.881557 0.397384 -0.254838
-0.035906 -0.001998 0.639569 -0.901129 -0.319141 -0.293453
-0.006286 -0.004205 0.639586 0.869959 0.412880 -0.269632
-0.009960 0.003517 0.639808 0.868873 0.417845 -0.265454
-0.012389 0.008675 0.639971 0.871316 0.413656 -0.264002
-0.037067 0.061285 0.639474 0.884239 0.357210 -0.300869
-0.128341 0.077290 0.636495 -0.959399 -0.276543 0.055470
-0.126113 0.077642 0.636281 0.769966 -0.629809 0.102431
-0.128038 0.080207 0.635505 -0.998693 0.041963 -0.029190
-0.124933 0.084050 0.636187 0.437983 -0.793285 0.422930
-0.044201 0.081508 0.639284 0.909275 0.295812 -0.292769
-0.123822 0.091207 0.636262 -0.985926 0.001661 0.167174
-0.118919 0.093634 0.636546 0.899707 -0.421635 0.112923
-0.076410 0.095270 0.639563 -0.971747 -0.235275 -0.018773
-0.048402 0.093614 0.638326 0.903654 0.262199 -0.338616
-0.123553 0.099765 0.636606 -0.967608 0.250654 0.030125
-0.116066 0.099789 0.636579 0.880536 -0.460022 0.114175
-0.080795 0.103814 0.639186 -0.797881 -0.602816 -0.000113
-0.078011 0.099623 0.639621 -0.921692 -0.385436 0.043846
-0.047945 0.097048 0.639646 0.901898 0.304167 -0.306695
-0.121278 0.107682 0.637060 -0.953845 0.298506 0.032760
-0.113886 0.106220 0.636633 0.822372 -0.555517 0.122904
-0.110297 0.109276 0.637318 0.796409 -0.580687 0.168925
-0.083309 0.108448 0.639037 -0.883296 -0.468711 -0.009864
-0.052620 0.108683 0.639791 0.947697 0.318182 0.025112
-0.120170 0.112069 0.637906 -0.945982 0.320829 0.046765
-0.118392 0.116006 0.637262 -0.936824 0.348214 0.033270
-0.106252 0.114316 0.637232 0.722096 -0.667862 0.180381
-0.102195 0.118472 0.637888 0.639949 -0.752755 0.154354
-0.088337 0.119242 0.638159 -0.921322 -0.384345 0.058700
-0.086731 0.115644 0.638549 -0.913950 -0.402958 0.048167
-0.054114 0.115563 0.638831 0.975980 0.202532 -0.080274
-0.115078 0.123863 0.637789 -0.907320 0.420259 0.012406
-0.098418 0.121723 0.637910 0.533202 -0.845492 0.028959
-0.091851 0.123384 0.637946 -0.301474 -0.949219 0.089987
-0.056602 0.125393 0.638314 0.998144 0.056057 -0.023789
-0.055600 0.121138 0.638675 0.972987 0.226773 -0.043255
-0.112595 0.128893 0.637956 -0.872618 0.488398 -0.002168
-0.110020 0.132915 0.638302 -0.836932 0.547225 -0.009449
-0.056438 0.130721 0.637964 0.966508 -0.240715 -0.088985
-0.055287 0.133132 0.638931 0.912343 -0.392933 -0.115041
-0.105874 0.138556 0.638561 -0.774136 0.632366 -0.028774
-0.102193 0.142267 0.638717 -0.669537 0.740143 -0.062523
-0.053167 0.138911 0.638084 0.738313 -0.597969 -0.311973
-0.046872 0.142104 0.639628 0.395667 -0.877086 -0.272339
-0.034320 0.143548 0.639119 -0.109342 -0.963266 -0.245282
-0.029464 0.143144 0.638957 0.069715 -0.951539 -0.299523
-0.097978 0.145447 0.638761 -0.551100 0.834353 0.011982
-0.092130 0.149001 0.638533 -0.492608 0.870079 0.017329
-0.087213 0.151768 0.638565 -0.448807 0.893618 0.004417
-0.040960 0.144593 0.639034 0.167783 -0.975481 -0.142430
-0.034574 0.145321 0.637668 -0.156913 -0.934035 -0.320869
-0.026060 0.145139 0.637648 0.268643 -0.879378 -0.393097
-0.019356 0.147932 0.638241 0.832869 -0.450919 -0.320939
-0.083456 0.153473 0.638159 -0.424034 0.905593 -0.009817
-0.076030 0.156787 0.638231 -0.383995 0.923277 -0.010386
-0.069961 0.159055 0.638329 -0.309480 0.950739 -0.017828
-0.050276 0.157066 0.638377 -0.312320 0.807894 -0.499763
-0.044536 0.158580 0.636970 -0.548086 0.624966 -0.555894
-0.038241 0.159593 0.632066 -0.632816 0.445497 -0.633306
-0.020112 0.156288 0.636147 0.941736 0.325126 -0.086178
-0.067010 0.160181 0.639005 -0.153003 0.987712 -0.031857
-0.041833 0.163345 0.638340 -0.686576 0.524098 -0.503919
-0.038387 0.164591 0.635477 -0.589127 0.594496 -0.547270
-0.024401 0.167148 0.636894 0.915761 0.395964 -0.067783
-0.022485 0.162846 0.636598 0.926613 0.369327 -0.070610
-0.034746 0.169323 0.638298 -0.379222 0.833042 -0.402780
-0.027410 0.170210 0.637823 0.328804 0.889113 -0.318380
0.019888 -0.155742 0.645044 -0.785712 -0.617902 0.029240
0.028057 -0.156464 0.644159 0.314359 -0.949290 0.005115
0.035800 -0.153528 0.643792 0.357495 -0.933914 -0.001335
0.040570 -0.152260 0.644717 0.351995 -0.935975 -0.007054
0.015649 -0.145169 0.645404 -0.949425 -0.303560 0.080275
0.017189 -0.148607 0.644491 -0.948356 -0.316747 0.017108
0.039332 -0.151787 0.643615 0.352818 -0.935661 -0.007585
0.044239 -0.150291 0.643850 0.370158 -0.928926 -0.008886
0.051221 -0.147007 0.644162 0.859144 -0.511356 -0.019667
0.014283 -0.139894 0.645115 -0.948933 -0.310188 0.057534
0.016191 -0.143507 0.641259 -0.941725 -0.307068 -0.137339
0.050546 -0.139980 0.644455 0.932133 0.362116 -0.000305
0.011731 -0.132070 0.644634 -0.946759 -0.320265 0.032825
0.046809 -0.130904 0.644293 0.923657 0.383185 0.005108
0.048548 -0.134744 0.645076 0.924574 0.379530 0.033447
0.007600 -0.121139 0.645778 -0.938856 -0.321029 0.124457
0.009261 -0.124715 0.644681 -0.945722 -0.324175 0.022805
0.044013 -0.124094 0.644669 0.922233 0.385939 0.023187
0.006101 -0.115855 0.645176 -0.943813 -0.326027 0.054068
0.008202 -0.119126 0.641216 -0.942923 -0.323429 -0.079306
0.039311 -0.113227 0.644663 0.916092 0.399739 0.031381
0.041135 -0.117106 0.644606 0.918527 0.392214 0.049768
0.003243 -0.108005 0.645218 -0.935576 -0.347780 0.061205
0.037122 -0.107939 0.644911 0.915018 0.398211 0.064571
-0.000768 -0.097638 0.645420 -0.927458 -0.369020 0.060377
0.000986 -0.101478 0.644702 -0.931951 -0.361977 0.020968
0.031686 -0.096598 0.640901 0.912903 0.368412 -0.175727
0.033807 -0.100107 0.645064 0.924096 0.375455 0.071274
-0.002828 -0.092185 0.645022 -0.922252 -0.384717 0.038000
0.030453 -0.091732 0.644782 0.932871 0.358246 0.037577
0.032186 -0.095068 0.646055 0.912214 0.356540 0.201855
-0.008219 -0.080377 0.646277 -0.914043 -0.402971 0.046253
-0.006223 -0.084307 0.644833 -0.915456 -0.400668 0.037497
0.027552 -0.084020 0.644908 0.929213 0.362924 0.069638
-0.009967 -0.075870 0.645194 -0.915539 -0.401161 0.029312
-0.007853 -0.079649 0.643466 -0.918324 -0.388967 -0.073389
0.023408 -0.073412 0.644851 0.936750 0.347784 0.039313
0.024995 -0.077255 0.645014 0.934114 0.350291 0.068748
-0.013264 -0.068071 0.644867 -0.919841 -0.392240 0.006291
0.021435 -0.067887 0.644791 0.937744 0.344657 0.042988
0.024092 -0.071844 0.647875 0.730322 0.282600 0.621906
-0.017135 -0.058867 0.645132 -0.926365 -0.376419 0.012502
-0.015459 -0.062447 0.644536 -0.924742 -0.380445 -0.010691
0.018562 -0.059986 0.644823 0.936209 0.348603 0.044586
-0.019830 -0.052115 0.645065 -0.926591 -0.375818 0.013769
0.014910 -0.050665 0.644842 0.929621 0.366343 0.039973
0.016591 -0.054324 0.645182 0.929671 0.358751 0.083726
-0.024448 -0.041195 0.646050 -0.927502 -0.369789 0.054741
-0.022637 -0.044839 0.644752 -0.927454 -0.373540 -0.017221
0.012312 -0.043928 0.645037 0.927074 0.371768 0.048193
-0.026282 -0.035876 0.645162 -0.933736 -0.357761 -0.012025
-0.023731 -0.038281 0.640253 -0.898660 -0.363314 -0.245792
0.007661 -0.032871 0.643626 0.923122 0.380446 -0.055731
0.009396 -0.036725 0.645055 0.924928 0.377501 0.044728
-0.029104 -0.028309 0.645252 -0.939214 -0.342693 -0.020953
0.005778 -0.028110 0.644784 0.918928 0.392414 0.039779
0.008121 -0.030807 0.647148 0.837422 0.329946 0.435730
-0.032792 -0.018156 0.645266 -0.943342 -0.329325 -0.040634
-0.031204 -0.021996 0.644706 -0.941078 -0.334755 -0.048082
0.002294 -0.019975 0.644969 0.914063 0.403398 0.041929
-0.034876 -0.011717 0.645009 -0.943794 -0.326825 -0.049381
-0.031515 -0.015807 0.640515 -0.932922 -0.338447 -0.122924
-0.001556 -0.011442 0.644787 0.911021 0.411330 0.029148
0.000286 -0.014520 0.645510 0.900917 0.405120 0.155647
-0.037659 -0.003953 0.645213 -0.945718 -0.324622 -0.015452
-0.004742 -0.004288 0.645073 0.903602 0.422636 0.069872
-0.040907 0.005107 0.645530 -0.941600 -0.336719 0.003132
-0.039352 0.001894 0.644498 -0.943614 -0.327772 -0.046456
-0.009276 0.004944 0.644782 0.901135 0.432753 0.026100
-0.007246 0.001402 0.645757 0.893743 0.427965 0.134422
-0.043336 0.012149 0.645424 -0.942996 -0.332801 0.001205
-0.012482 0.011823 0.644898 0.905247 0.422156 0.048085
-0.046070 0.019911 0.645184 -0.939292 -0.342619 -0.018523
-0.017113 0.021508 0.644586 0.906845 0.420080 0.034137
-0.015073 0.017821 0.645715 0.902836 0.419373 0.094941
-0.049333 0.028517 0.645597 -0.939148 -0.343375 0.009720
-0.047561 0.024890 0.644230 -0.936961 -0.342441 -0.069563
-0.019948 0.028002 0.644661 0.908574 0.414387 0.052701
-0.052069 0.036186 0.645425 -0.938315 -0.345765 -0.003399
-0.024650 0.038057 0.644542 0.913979 0.405047 0.024059
-0.022714 0.034499 0.645377 0.907423 0.405100 0.111702
-0.056462 0.047099 0.646163 -0.930646 -0.365722 0.012014
-0.054801 0.043306 0.645509 -0.933699 -0.357971 0.007973
-0.027002 0.043938 0.645231 0.910461 0.402894 0.093468
-0.058227 0.052080 0.645618 -0.929653 -0.368430 0.002221
-0.055259 0.048749 0.641753 -0.927852 -0.365870 -0.072318
-0.032147 0.055019 0.643644 0.924011 0.380608 0.036632
-0.030322 0.051778 0.645612 0.913173 0.385558 0.132135
-0.061607 0.060225 0.645488 -0.913323 -0.406972 -0.014634
-0.033823 0.059935 0.645443 0.926094 0.367997 0.083234
-0.031195 0.056636 0.644811 0.788774 0.315596 0.527479
-0.065503 0.068322 0.645782 -0.902357 -0.430722 0.015198
-0.063546 0.065222 0.644260 -0.901561 -0.427735 -0.065039
-0.037030 0.068179 0.645104 0.937286 0.341488 0.069855
-0.128297 0.077410 0.641928 0.083913 -0.648713 0.756393
-0.126832 0.077981 0.641871 0.611012 -0.498950 0.614584
-0.069084 0.075997 0.645545 -0.896975 -0.441908 -0.012376
-0.040596 0.077892 0.644684 0.946742 0.321763 0.012171
-0.039038 0.074443 0.645824 0.938157 0.323007 0.124613
-0.128531 0.080057 0.643408 0.807664 -0.301614 0.506663
-0.125415 0.084054 0.642314 0.345833 -0.274402 0.897276
-0.073604 0.084885 0.645553 -0.902641 -0.428524 -0.040078
-0.071250 0.081025 0.644557 -0.886810 -0.456700 -0.070669
-0.042525 0.084110 0.645023 0.953453 0.301329 0.011341
-0.039814 0.080286 0.647583 0.766939 0.225122 0.600936
-0.123426 0.091814 0.642784 0.124708 -0.214299 0.968774
-0.119233 0.094109 0.641059 0.789817 -0.368015 0.490668
-0.076053 0.092201 0.644501 -0.969297 -0.244762 -0.023562
-0.044908 0.092006 0.644907 0.957521 0.288362 0.000498
-0.122294 0.099705 0.643617 -0.730790 0.104187 0.674604
-0.117399 0.100510 0.641867 0.683956 -0.351553 0.639230
-0.080734 0.103502 0.643969 -0.783758 -0.620524 0.025966
-0.078030 0.099853 0.644072 -0.917084 -0.398438 0.014254
-0.049012 0.102242 0.643491 0.880739 0.473569 -0.005671
-0.046884 0.098600 0.644873 0.925367 0.378929 -0.010442
-0.121009 0.107191 0.643440 -0.949349 0.263420 0.171308
-0.115774 0.107783 0.643209 0.473532 -0.343382 0.811084
-0.110559 0.110065 0.641150 0.644038 -0.470514 0.603184
-0.083044 0.107909 0.644098 -0.885489 -0.464361 0.016692
-0.052240 0.108139 0.643931 0.937522 0.343811 0.053357
-0.117005 0.115599 0.644096 -0.913124 0.257848 0.315782
-0.107894 0.116007 0.642296 0.481225 -0.512749 0.710993
-0.102071 0.118954 0.642217 0.440906 -0.843655 0.306348
-0.088240 0.119361 0.642205 -0.916565 -0.394743 0.063932
-0.086449 0.115631 0.644003 -0.920724 -0.388914 0.031815
-0.053803 0.115741 0.644117 0.983969 0.178213 0.006651
-0.114808 0.123952 0.644120 -0.915097 0.400222 0.049184
-0.106250 0.120890 0.644714 0.190186 -0.770705 0.608147
-0.099403 0.121325 0.644485 0.370854 -0.924834 0.084552
-0.091504 0.123357 0.644171 -0.346684 -0.937823 0.017288
-0.087787 0.120395 0.642886 -0.910373 -0.411693 0.041584
-0.056480 0.125715 0.644096 0.999054 0.042001 -0.011304
-0.055488 0.122390 0.644393 0.975388 0.220440 0.004902
-0.112480 0.128807 0.643465 -0.878503 0.476928 0.027802
-0.110132 0.132586 0.644267 -0.845627 0.533367 0.020826
-0.056344 0.129468 0.644048 0.971539 -0.236756 -0.007583
-0.054585 0.133243 0.644503 0.862886 -0.504506 -0.030007
-0.106085 0.138331 0.643977 -0.784715 0.619847 0.003386
-0.102300 0.142404 0.644351 -0.674380 0.738381 0.002328
-0.050501 0.138093 0.644232 0.609844 -0.791974 -0.029440
-0.044122 0.141456 0.644762 0.356296 -0.934314 0.010560
-0.035917 0.143011 0.644489 -0.060521 -0.997932 -0.021631
-0.028209 0.142230 0.644932 0.141407 -0.989162 0.039525
-0.023001 0.143443 0.644987 0.384010 -0.919130 0.087962
-0.098230 0.145291 0.644025 -0.527503 0.849478 0.011286
-0.091993 0.149014 0.643987 -0.497300 0.867380 0.018584
-0.086564 0.151552 0.644192 -0.445414 0.894713 0.033086
-0.037432 0.144116 0.641192 -0.005149 -0.998838 -0.047913
-0.024283 0.144367 0.643996 0.343018 -0.939309 0.006135
-0.018870 0.146321 0.644666 0.698861 -0.710477 0.082560
-0.015727 0.148938 0.643588 0.802335 -0.374515 0.464754
-0.083023 0.153656 0.644036 -0.425295 0.904816 0.020804
-0.075879 0.156666 0.644023 -0.383538 0.923092 0.028287
-0.069507 0.159106 0.644131 -0.295753 0.955103 0.017543
-0.059744 0.159071 0.644625 0.021596 0.999499 0.023127
-0.052383 0.159395 0.644978 -0.225512 0.970635 0.083738
-0.047544 0.159649 0.646745 -0.378643 0.783797 0.492232
-0.019485 0.155906 0.643925 0.947007 0.320321 -0.023914
-0.067009 0.160224 0.644350 -0.095180 0.995460 0.000107
-0.049446 0.160492 0.644819 -0.367402 0.929261 -0.038593
-0.043536 0.164486 0.644468 -0.674707 0.738056 -0.006647
-0.024322 0.167429 0.643010 0.917072 0.396832 -0.038773
-0.022340 0.163413 0.644074 0.924618 0.379266 -0.035209
-0.040100 0.168502 0.643197 -0.644764 0.763962 0.025322
-0.036399 0.170253 0.644531 -0.469833 0.882090 -0.034265
-0.027350 0.171807 0.644650 0.374527 0.927132 -0.012525
-0.023567 0.168929 0.643822 0.431117 0.892887 0.129962
0.021359 -0.155121 0.652448 -0.708799 -0.483598 0.513553
0.027324 -0.156465 0.652632 0.098181 -0.949934 0.296625
0.035689 -0.153578 0.651976 0.349854 -0.934911 0.059523
0.040702 -0.152244 0.652191 0.383653 -0.918874 0.092087
0.015729 -0.145026 0.649225 -0.901166 -0.282632 0.328662
0.018984 -0.148129 0.652812 -0.792049 -0.258652 0.552954
0.039518 -0.151778 0.651641 0.360600 -0.931541 0.046898
0.044805 -0.149789 0.652556 0.480218 -0.831281 0.279932
0.050277 -0.146510 0.652709 0.802167 -0.248379 0.542988
0.014841 -0.138965 0.650995 -0.860827 -0.285522 0.421252
0.017545 -0.140717 0.654260 -0.710866 -0.230639 0.664436
0.046551 -0.138768 0.654891 0.578921 0.274822 0.767674
0.049614 -0.140825 0.652181 0.789102 0.314738 0.527502
0.013412 -0.131762 0.652607 -0.785430 -0.264730 0.559479
0.016592 -0.134216 0.655510 -0.611031 -0.196639 0.766795
0.039633 -0.128425 0.655849 0.459039 0.224501 0.859583
0.044590 -0.131938 0.653430 0.668108 0.304722 0.678805
0.048552 -0.135067 0.649617 0.858720 0.370883 0.353620
0.007687 -0.121346 0.649530 -0.874234 -0.293377 0.386839
0.011196 -0.124069 0.653103 -0.749146 -0.255408 0.611185
0.038662 -0.122784 0.655116 0.516275 0.244107 0.820897
0.042204 -0.124512 0.652501 0.707931 0.320829 0.629208
0.006758 -0.115152 0.651194 -0.839360 -0.294844 0.456664
0.009628 -0.116635 0.654425 -0.654582 -0.222078 0.722637
0.031875 -0.112851 0.655895 0.421843 0.198448 0.884685
0.036714 -0.115575 0.653842 0.601424 0.275180 0.750043
0.040834 -0.117920 0.650216 0.813955 0.359955 0.455970
0.005167 -0.107718 0.652727 -0.751918 -0.284488 0.594716
0.008553 -0.109882 0.655525 -0.541383 -0.192218 0.818509
0.030682 -0.106456 0.655365 0.446576 0.206899 0.870495
0.034714 -0.108475 0.652708 0.672910 0.298708 0.676732
-0.000545 -0.097549 0.650036 -0.866277 -0.342227 0.363929
0.002755 -0.100256 0.653373 -0.706951 -0.281861 0.648671
0.029188 -0.099575 0.654281 0.543208 0.226372 0.808505
0.033120 -0.101102 0.650850 0.781910 0.326914 0.530795
-0.001936 -0.091333 0.652035 -0.787442 -0.337904 0.515516
0.001166 -0.093106 0.654960 -0.589234 -0.250775 0.768059
0.023160 -0.090198 0.655666 0.421577 0.164207 0.891801
0.027497 -0.092229 0.653116 0.640041 0.249512 0.726699
0.032269 -0.095156 0.650271 0.684167 0.272283 0.676593
-0.008333 -0.080680 0.649039 -0.856159 -0.387413 0.341910
-0.004358 -0.084078 0.653001 -0.734917 -0.332031 0.591315
0.000241 -0.087022 0.655884 -0.481529 -0.228048 0.846241
0.022034 -0.083513 0.654955 0.499255 0.183224 0.846861
0.025941 -0.084555 0.651694 0.738592 0.286389 0.610298
-0.009439 -0.075123 0.651507 -0.818214 -0.368148 0.441579
-0.006509 -0.077104 0.654521 -0.647765 -0.304206 0.698469
0.020848 -0.075828 0.653582 0.633110 0.218731 0.742515
0.024762 -0.078139 0.649916 0.827668 0.305202 0.470975
-0.011729 -0.067950 0.652855 -0.771199 -0.339461 0.538534
-0.007729 -0.071478 0.655803 -0.570451 -0.270633 0.775463
0.015373 -0.066344 0.655518 0.509513 0.160006 0.845455
0.019005 -0.068373 0.652868 0.700515 0.241363 0.671582
-0.017002 -0.058241 0.650749 -0.865308 -0.352125 0.356722
-0.014373 -0.060646 0.653696 -0.744254 -0.310543 0.591311
0.014286 -0.059447 0.654628 0.605980 0.213865 0.766192
0.017537 -0.060634 0.651344 0.792467 0.285498 0.538968
-0.018622 -0.051782 0.652675 -0.796654 -0.325419 0.509357
-0.015422 -0.054587 0.655431 -0.642032 -0.265378 0.719284
0.012655 -0.051915 0.653319 0.688726 0.264264 0.675145
0.016409 -0.054765 0.649521 0.859891 0.328868 0.390426
-0.024340 -0.041379 0.649953 -0.876579 -0.351095 0.329154
-0.021380 -0.044244 0.653076 -0.780009 -0.313081 0.541818
0.007039 -0.042481 0.655286 0.557949 0.217894 0.800759
0.010364 -0.044462 0.652641 0.729432 0.285161 0.621782
-0.025555 -0.035510 0.651947 -0.829598 -0.315884 0.460418
-0.022908 -0.037415 0.654857 -0.683573 -0.262155 0.681178
0.005686 -0.035572 0.653969 0.655842 0.265082 0.706826
0.008926 -0.037628 0.651075 0.792901 0.317970 0.519810
-0.027687 -0.028033 0.652936 -0.785646 -0.284924 0.549162
-0.023838 -0.031884 0.655917 -0.620452 -0.224881 0.751311
-0.000761 -0.025372 0.655706 0.511740 0.230677 0.827593
0.003354 -0.028029 0.653049 0.699685 0.303406 0.646827
0.008395 -0.031658 0.648549 0.742707 0.341657 0.575897
-0.032637 -0.018147 0.650490 -0.879615 -0.307605 0.362844
-0.029957 -0.020475 0.653530 -0.752034 -0.259613 0.605843
-0.001933 -0.019198 0.654560 0.589161 0.271632 0.760990
0.001426 -0.020847 0.651518 0.771253 0.341212 0.537348
-0.033943 -0.011603 0.652161 -0.811533 -0.270988 0.517667
-0.031105 -0.012903 0.655272 -0.609596 -0.191741 0.769173
-0.008491 -0.009050 0.655719 0.447911 0.226784 0.864838
-0.004001 -0.011977 0.653205 0.659575 0.308067 0.685606
0.000067 -0.014849 0.650075 0.801625 0.358012 0.478774
-0.035776 -0.003920 0.653074 -0.738779 -0.240728 0.629488
-0.031828 -0.007179 0.655803 -0.499328 -0.140701 0.854912
-0.009878 -0.003187 0.654847 0.507331 0.259682 0.821693
-0.006172 -0.004681 0.651890 0.724431 0.346082 0.596178
-0.040838 0.005786 0.650494 -0.869443 -0.306293 0.387624
-0.037797 0.003669 0.653858 -0.656546 -0.219294 0.721705
-0.016714 0.006420 0.655682 0.365259 0.198329 0.909533
-0.012038 0.003956 0.653524 0.581247 0.297552 0.757373
-0.007659 0.001527 0.650072 0.788630 0.381733 0.482019
-0.042109 0.012366 0.652202 -0.769304 -0.256822 0.584991
-0.038686 0.011455 0.655349 -0.462815 -0.138295 0.875601
-0.018424 0.012702 0.655022 0.410456 0.216948 0.885697
-0.013848 0.011328 0.651907 0.683163 0.330054 0.651424
-0.048137 0.022700 0.649739 -0.719141 -0.255992 0.645992
-0.043777 0.020238 0.653237 -0.646604 -0.224387 0.729077
-0.039419 0.018246 0.655791 -0.348956 -0.098012 0.932000
-0.025187 0.022004 0.655687 0.273221 0.158938 0.948730
-0.020106 0.019978 0.653656 0.520778 0.258577 0.813590
-0.015426 0.017796 0.650054 0.763895 0.360119 0.535517
-0.049102 0.029086 0.650817 -0.830723 -0.299335 0.469359
-0.045169 0.027637 0.654404 -0.495876 -0.172992 0.850988
-0.032195 0.031434 0.655993 0.186556 0.100212 0.977320
-0.026995 0.028555 0.655105 0.323601 0.172038 0.930422
-0.021537 0.027474 0.651896 0.652664 0.312297 0.690290
-0.050590 0.036307 0.652329 -0.712295 -0.257122 0.653089
-0.045883 0.035784 0.655472 -0.291517 -0.089904 0.952331
-0.033711 0.037367 0.655688 0.203866 0.113181 0.972434
-0.028059 0.035951 0.653763 0.458695 0.219228 0.861126
-0.023055 0.034179 0.650098 0.756251 0.346823 0.554796
-0.056425 0.046846 0.649837 -0.837148 -0.327801 0.437870
-0.051970 0.044138 0.653563 -0.554524 -0.209818 0.805282
-0.045866 0.043641 0.655818 -0.129736 -0.038668 0.990794
-0.035464 0.044341 0.655222 0.252041 0.122489 0.959933
-0.029204 0.043604 0.652229 0.592909 0.268579 0.759160
-0.057632 0.052679 0.651527 -0.768252 -0.315410 0.557050
-0.052514 0.051715 0.655066 -0.324685 -0.136139 0.935973
-0.042494 0.052279 0.655809 0.111612 0.045918 0.992690
-0.036005 0.052019 0.654170 0.390554 0.161248 0.906348
-0.030805 0.050729 0.650701 0.716182 0.304623 0.627923
-0.064392 0.063218 0.649858 -0.638193 -0.314156 0.702862
-0.059394 0.060347 0.653093 -0.622838 -0.286948 0.727828
-0.053995 0.058776 0.655672 -0.211041 -0.111192 0.971132
-0.042998 0.060279 0.655463 0.218807 0.068494 0.973361
-0.036678 0.059734 0.652740 0.552433 0.212440 0.806031
-0.031831 0.057101 0.649707 0.574538 0.244580 0.781081
-0.065308 0.069367 0.651261 -0.785007 -0.389932 0.481370
-0.061223 0.067264 0.654456 -0.490740 -0.263338 0.830558
-0.053176 0.066646 0.655920 -0.057962 -0.071436 0.995760
-0.043460 0.068171 0.654902 0.341753 0.094595 0.935017
-0.038104 0.067402 0.651606 0.683639 0.240391 0.689094
-0.128247 0.076139 0.653064 -0.695037 -0.718374 0.029388
-0.126643 0.077115 0.653708 0.316217 -0.947484 -0.047764
-0.067499 0.076183 0.652921 -0.697215 -0.368884 0.614668
-0.063152 0.073725 0.655599 -0.397360 -0.241225 0.885390
-0.048515 0.077300 0.655852 0.288727 0.045874 0.956312
-0.043982 0.075975 0.654022 0.492769 0.130251 0.860357
-0.039288 0.074306 0.650127 0.816854 0.267428 0.511109
-0.125186 0.084085 0.653454 -0.974390 -0.223927 -0.020491
-0.073355 0.085473 0.651559 -0.801964 -0.417738 0.427022
-0.070157 0.082822 0.654069 -0.651627 -0.367546 0.663545
-0.048879 0.084304 0.655687 0.374861 0.065517 0.924763
-0.044867 0.083715 0.653094 0.636899 0.171742 0.751575
-0.124294 0.091612 0.653089 -0.982279 0.185889 0.023952
-0.118645 0.093088 0.654359 0.897639 -0.436255 0.062650
-0.075294 0.091720 0.653135 -0.810017 -0.313013 0.495878
-0.071560 0.088379 0.655738 -0.563012 -0.321962 0.761156
-0.049260 0.092246 0.655150 0.520615 0.106910 0.847071
-0.046036 0.091640 0.652049 0.756963 0.202653 0.621239
-0.122986 0.099995 0.652541 -0.963796 0.266615 0.003738
-0.115124 0.099949 0.654519 0.875706 -0.466886 0.123115
-0.080606 0.103372 0.651971 -0.688589 -0.616858 0.381223
-0.076400 0.100534 0.654318 -0.461940 -0.177529 0.868962
-0.068294 0.101775 0.655694 -0.017885 0.089236 0.995850
-0.060402 0.102665 0.655814 -0.025392 0.134954 0.990526
-0.050523 0.100461 0.654325 0.573729 0.213081 0.790842
-0.047063 0.098319 0.650890 0.820447 0.270251 0.503817
-0.120926 0.106933 0.652329 -0.953351 0.301856 0.002134
-0.117165 0.108671 0.653008 -0.990824 0.079752 0.109119
-0.109810 0.108708 0.654368 0.819319 -0.557131 0.135353
-0.082690 0.107762 0.652513 -0.838322 -0.487154 0.244740
-0.075033 0.104743 0.655641 -0.008482 -0.237409 0.971373
-0.067458 0.106093 0.655549 0.057438 -0.099383 0.993390
-0.059890 0.107777 0.655399 0.053088 -0.016049 0.998461
-0.053514 0.107446 0.654183 0.424609 0.176982 0.887911
-0.117785 0.116017 0.652046 -0.939567 0.341474 0.024678
-0.105761 0.114328 0.654420 0.770306 -0.624781 0.127583
-0.101833 0.118657 0.653325 0.661197 -0.749049 0.041766
-0.088143 0.119480 0.652760 -0.913820 -0.404057 0.040881
-0.086282 0.115589 0.652133 -0.904814 -0.414027 0.099465
-0.057641 0.113342 0.655793 0.148983 -0.164571 0.975049
-0.054094 0.115148 0.653626 0.720698 -0.012050 0.693144
-0.114540 0.123993 0.652214 -0.909575 0.413807 0.037917
-0.098400 0.121676 0.652152 0.518997 -0.854276 0.029244
-0.091951 0.123398 0.652184 -0.248931 -0.967849 0.036077
-0.087741 0.120469 0.650873 -0.876873 -0.480216 0.022043
-0.056527 0.125744 0.652271 0.974953 0.078848 0.207967
-0.055273 0.122244 0.652547 0.907191 0.195626 0.372472
-0.112334 0.128713 0.651811 -0.884505 0.465673 0.028272
-0.109941 0.132710 0.652197 -0.850845 0.524643 0.028502
-0.056563 0.130355 0.652654 0.949184 -0.227189 0.217797
-0.054568 0.134004 0.651621 0.833149 -0.489819 0.256789
-0.105986 0.138384 0.651951 -0.784101 0.620056 0.026754
-0.102313 0.142461 0.651887 -0.668281 0.743374 0.028200
-0.050969 0.139567 0.652918 0.624563 -0.569015 0.534923
-0.044539 0.142221 0.650923 0.342681 -0.766686 0.542920
-0.035726 0.143092 0.650075 -0.073219 -0.897328 0.435248
-0.028755 0.142957 0.650684 0.143785 -0.907052 0.395706
-0.023636 0.143774 0.650012 0.359327 -0.830565 0.425496
-0.098253 0.145306 0.652156 -0.531396 0.846992 -0.014958
-0.092205 0.148811 0.651820 -0.493175 0.869684 0.020700
-0.087104 0.151440 0.651869 -0.437245 0.898811 0.030924
-0.048826 0.146526 0.655642 0.323574 -0.253147 0.911711
-0.043909 0.147553 0.654750 0.128754 -0.399162 0.907795
-0.036433 0.146300 0.653767 -0.134000 -0.700307 0.701152
-0.027442 0.145622 0.653921 0.194903 -0.765709 0.612946
-0.020195 0.147638 0.652360 0.485637 -0.709489 0.510669
-0.015664 0.147121 0.649300 0.704849 -0.492746 0.510283
-0.083148 0.153399 0.651949 -0.408380 0.912172 0.034179
-0.076167 0.156347 0.651977 -0.386832 0.920378 0.057139
-0.069363 0.158894 0.652144 -0.283895 0.950883 0.123392
-0.059386 0.157593 0.652789 0.161842 0.845917 0.508165
-0.051589 0.157124 0.653474 -0.050431 0.655840 0.753213
-0.045463 0.156398 0.655083 -0.208388 0.273816 0.938935
-0.019237 0.155549 0.652154 0.956816 0.240876 0.162733
-0.066833 0.160186 0.652360 -0.051975 0.994835 0.087193
-0.048950 0.160396 0.650235 -0.351881 0.833066 0.426826
-0.042825 0.163087 0.652433 -0.604950 0.559975 0.566096
-0.037717 0.166129 0.654588 -0.467184 0.607044 0.642835
-0.028327 0.167476 0.654542 0.139681 0.752036 0.644151
-0.022236 0.163691 0.651360 0.909215 0.407857 0.083546
-0.035518 0.169571 0.651382 -0.395844 0.822164 0.409090
-0.027975 0.170812 0.652859 -0.030459 0.827451 0.560711
-0.023402 0.168762 0.653449 0.294147 0.788379 0.540312
0.023565 -0.153402 0.656509 -0.527665 -0.277137 0.802973
0.027852 -0.154127 0.657858 -0.221363 -0.403579 0.887763
0.034932 -0.153154 0.658484 0.158946 -0.537501 0.828148
0.040387 -0.152293 0.657118 0.407162 -0.759083 0.507949
0.022647 -0.147451 0.656964 -0.501226 -0.145590 0.852981
0.027993 -0.148146 0.658847 -0.237819 -0.062798 0.969277
0.035927 -0.148148 0.659563 0.074497 -0.054350 0.995739
0.043369 -0.147479 0.657879 0.383408 -0.127771 0.914698
0.048504 -0.145951 0.656318 0.464934 0.051629 0.883839
0.021367 -0.139641 0.657412 -0.404713 -0.114806 0.907208
0.028037 -0.140055 0.659050 -0.123890 -0.000133 0.992296
0.035961 -0.139968 0.658987 0.128785 0.099728 0.986645
0.042972 -0.140465 0.657395 0.348496 0.179112 0.920038
0.048151 -0.143162 0.656083 0.436130 0.094446 0.894914
0.015501 -0.129147 0.656222 -0.506707 -0.159120 0.847307
0.020113 -0.131721 0.657698 -0.317687 -0.083569 0.944506
0.027886 -0.131968 0.658923 -0.021388 0.031480 0.999275
0.035929 -0.132005 0.658045 0.227830 0.131391 0.964795
0.041352 -0.133125 0.656644 0.392988 0.200357 0.897450
0.014664 -0.123170 0.656678 -0.428992 -0.133177 0.893437
0.019958 -0.123996 0.658108 -0.191807 -0.032727 0.980887
0.027927 -0.124021 0.658503 0.083944 0.069122 0.994070
0.035033 -0.124278 0.657201 0.301864 0.158903 0.940015
0.040560 -0.127128 0.656061 0.347819 0.181815 0.919764
0.013427 -0.115616 0.657062 -0.336998 -0.102212 0.935941
0.019924 -0.116070 0.658234 -0.077186 -0.003715 0.997010
0.027993 -0.116067 0.657771 0.185372 0.106027 0.976932
0.033461 -0.117162 0.656571 0.345814 0.172618 0.922288
0.007386 -0.105121 0.656256 -0.401244 -0.157417 0.902343
0.012240 -0.107865 0.657334 -0.251942 -0.078510 0.964553
0.019992 -0.108060 0.658097 0.033715 0.037976 0.998710
0.027200 -0.108394 0.657063 0.261109 0.132835 0.956126
0.032455 -0.110860 0.656147 0.381001 0.183451 0.906192
0.006405 -0.099185 0.656676 -0.360841 -0.150680 0.920374
0.011911 -0.100077 0.657772 -0.129732 -0.055851 0.989975
0.019934 -0.100049 0.657687 0.143699 0.062682 0.987634
0.025558 -0.100770 0.656574 0.311973 0.136524 0.940231
-0.000285 -0.088803 0.656093 -0.431256 -0.200080 0.879765
0.004852 -0.091662 0.657177 -0.285000 -0.130295 0.949630
0.012009 -0.092074 0.658074 -0.005605 -0.015149 0.999870
0.019697 -0.092262 0.657166 0.236233 0.087234 0.967773
0.024523 -0.094735 0.656301 0.348359 0.134451 0.927669
-0.001413 -0.082345 0.656644 -0.409580 -0.198863 0.890336
0.003927 -0.083998 0.657812 -0.183531 -0.105008 0.977389
0.011968 -0.084081 0.658063 0.103896 0.015014 0.994475
0.018293 -0.084433 0.656857 0.296391 0.097633 0.950063
-0.003021 -0.075516 0.657249 -0.339099 -0.176607 0.924025
0.003924 -0.076004 0.658442 -0.054999 -0.058104 0.996794
0.012019 -0.076030 0.657803 0.208446 0.045164 0.976991
0.017287 -0.076769 0.656435 0.371927 0.113569 0.921289
-0.009146 -0.066430 0.656687 -0.469739 -0.219435 0.855099
-0.004095 -0.068024 0.658083 -0.245503 -0.137308 0.959622
0.003899 -0.068077 0.658803 0.048690 -0.024428 0.998515
0.011613 -0.068177 0.657448 0.298683 0.076223 0.951303
0.016518 -0.070845 0.656276 0.415086 0.123590 0.901348
-0.010579 -0.059629 0.657354 -0.404454 -0.178328 0.897004
-0.004146 -0.060062 0.658899 -0.120163 -0.065863 0.990567
0.003904 -0.060053 0.658754 0.146551 0.036324 0.988536
0.010552 -0.060381 0.657115 0.364714 0.116179 0.923843
-0.016666 -0.049859 0.656452 -0.521125 -0.212280 0.826660
-0.011878 -0.051895 0.658016 -0.316305 -0.130696 0.939612
-0.004126 -0.051981 0.659192 -0.008379 -0.007387 0.999938
0.003898 -0.051974 0.658216 0.241801 0.088478 0.966283
0.009216 -0.053095 0.656690 0.422198 0.158200 0.892593
-0.017926 -0.043382 0.657068 -0.451743 -0.178319 0.874146
-0.012108 -0.043955 0.658769 -0.183710 -0.073136 0.980256
-0.004093 -0.043931 0.659082 0.090260 0.033039 0.995370
0.003357 -0.044228 0.657552 0.331889 0.128442 0.934533
0.008252 -0.046398 0.656404 0.426353 0.164165 0.889535
-0.024386 -0.032422 0.656294 -0.462636 -0.164723 0.871111
-0.019291 -0.035875 0.657665 -0.372243 -0.137951 0.917826
-0.011975 -0.036087 0.659162 -0.065782 -0.015437 0.997715
-0.004059 -0.036134 0.658666 0.182715 0.078547 0.980023
0.001915 -0.036576 0.657055 0.383135 0.156850 0.910278
-0.025037 -0.026656 0.656613 -0.493145 -0.169030 0.853368
-0.019992 -0.028038 0.658237 -0.256787 -0.071215 0.963841
-0.012052 -0.028052 0.659082 0.029119 0.038819 0.998822
-0.004273 -0.028203 0.657875 0.280642 0.134591 0.950329
0.000653 -0.029786 0.656481 0.437842 0.192837 0.878128
-0.026165 -0.019560 0.657156 -0.389378 -0.118714 0.913396
-0.020069 -0.020011 0.658564 -0.130813 -0.016073 0.991277
-0.012078 -0.020028 0.658553 0.127581 0.089795 0.987755
-0.005451 -0.020592 0.657117 0.343051 0.173825 0.923093
-0.027420 -0.011823 0.657368 -0.306475 -0.068734 0.949394
-0.020082 -0.011985 0.658484 -0.025982 0.039680 0.998875
-0.012166 -0.012108 0.657665 0.228022 0.136722 0.964009
-0.006936 -0.013787 0.656488 0.381323 0.193513 0.903961
-0.032881 -0.002317 0.656357 -0.390927 -0.106664 0.914221
-0.028024 -0.003974 0.657503 -0.198517 -0.021712 0.979857
-0.020050 -0.003946 0.657929 0.075714 0.091702 0.992904
-0.013439 -0.004503 0.656888 0.279202 0.169783 0.945103
-0.033823 0.004372 0.656622 -0.293232 -0.073634 0.953202
-0.028052 0.003990 0.657495 -0.074757 0.019335 0.997014
-0.020222 0.003940 0.657114 0.174435 0.123288 0.976920
-0.015000 0.001598 0.656314 0.308286 0.185376 0.933057
-0.034897 0.012203 0.656698 -0.201472 -0.032502 0.978955
-0.028013 0.012026 0.657176 0.034258 0.061443 0.997523
-0.021784 0.011150 0.656553 0.216703 0.137782 0.966466
-0.040493 0.022040 0.656114 -0.233391 -0.060387 0.970506
-0.035826 0.020127 0.656665 -0.119443 -0.007957 0.992809
-0.028522 0.019700 0.656671 0.118280 0.091029 0.988799
-0.023289 0.017416 0.656186 0.234947 0.137048 0.962298
-0.041197 0.028759 0.656210 -0.177081 -0.044312 0.983198
-0.035990 0.027914 0.656543 -0.008755 0.028819 0.999546
-0.030269 0.026617 0.656301 0.151900 0.101366 0.983184
-0.041959 0.036132 0.656253 -0.097762 -0.006687 0.995187
-0.036909 0.035337 0.656339 0.062585 0.054003 0.996578
-0.031756 0.033602 0.656197 0.169949 0.096585 0.980708
-0.043101 0.044076 0.656170 -0.023992 0.009268 0.999669
-0.038727 0.042318 0.656149 0.090480 0.061093 0.994023
-0.049115 0.053663 0.656118 -0.069673 -0.038122 0.996841
-0.045123 0.051742 0.656121 0.015962 0.004988 0.999860
-0.056272 0.063836 0.656062 -0.151204 -0.103571 0.983062
-0.050929 0.060693 0.656210 -0.038799 -0.045829 0.998196
-0.046470 0.059539 0.656143 0.077438 0.009254 0.996954
-0.057865 0.069358 0.656330 -0.149333 -0.122635 0.981153
-0.051969 0.068010 0.656454 0.024521 -0.039296 0.998927
-0.047113 0.067310 0.656157 0.160534 0.019041 0.986847
-0.128350 0.076231 0.658712 0.578267 -0.765062 0.283350
-0.126127 0.077628 0.660242 0.305403 -0.670944 0.675694
-0.064908 0.078335 0.656341 -0.301644 -0.211702 0.929620
-0.059781 0.076200 0.656839 -0.115696 -0.127645 0.985049
-0.052240 0.075894 0.656734 0.124393 -0.021460 0.992001
-0.047496 0.074592 0.656146 0.234047 0.026942 0.971852
-0.124409 0.084119 0.660773 0.177816 -0.101139 0.978853
-0.119156 0.087625 0.660931 -0.061273 0.088772 0.994166
-0.072111 0.087346 0.656094 -0.412188 -0.246246 0.877191
-0.066831 0.084695 0.657018 -0.264349 -0.187129 0.946099
-0.060009 0.083980 0.657642 -0.008762 -0.082913 0.996518
-0.052678 0.083864 0.656920 0.213653 -0.000729 0.976909
-0.047841 0.081299 0.656071 0.310633 0.044336 0.949495
-0.122861 0.091638 0.660908 -0.145393 0.047036 0.988255
-0.118745 0.093326 0.660062 0.687704 -0.271774 0.673203
-0.073542 0.093460 0.656466 -0.274257 -0.053367 0.960174
-0.068083 0.091908 0.657173 -0.139513 0.055984 0.988636
-0.060042 0.091915 0.657671 0.002220 0.107337 0.994220
-0.053210 0.091876 0.656971 0.253629 0.054705 0.965753
-0.121979 0.099679 0.660355 -0.477668 0.167634 0.862399
-0.116762 0.100464 0.660525 0.411036 -0.179602 0.893752
-0.074028 0.097518 0.656166 -0.113856 0.076377 0.990557
-0.067575 0.097989 0.656290 -0.039890 0.152048 0.987568
-0.059864 0.098830 0.656465 -0.036195 0.167166 0.985264
-0.053822 0.099329 0.656495 0.149895 0.148420 0.977498
-0.120750 0.106297 0.659508 -0.711687 0.254044 0.654953
-0.116021 0.108002 0.660795 -0.010206 0.011558 0.999881
-0.110230 0.109298 0.659649 0.565433 -0.348297 0.747646
-0.081926 0.109229 0.656930 -0.220409 -0.276634 0.935357
-0.076240 0.108317 0.656826 0.036634 -0.194356 0.980247
-0.068502 0.109576 0.656420 0.090667 -0.160491 0.982864
-0.061832 0.110955 0.656156 0.108246 -0.168330 0.979769
-0.115391 0.115734 0.660188 -0.311905 0.154818 0.937415
-0.107947 0.116009 0.660271 0.272150 -0.169616 0.947188
-0.102597 0.118436 0.658574 0.582372 -0.508799 0.634008
-0.088407 0.119332 0.657672 -0.391698 -0.317241 0.863673
-0.083746 0.116232 0.657973 -0.175612 -0.222365 0.959017
-0.076056 0.115936 0.657814 0.068382 -0.117308 0.990739
-0.067979 0.115924 0.657167 0.081900 -0.120316 0.989352
-0.060278 0.116368 0.656565 0.118224 -0.118625 0.985876
-0.055208 0.117510 0.656220 0.269433 -0.073240 0.960230
-0.113781 0.123242 0.659533 -0.465284 0.247927 0.849732
-0.107989 0.123919 0.660556 -0.026755 0.052560 0.998259
-0.100100 0.124043 0.659817 0.201143 -0.245237 0.948367
-0.091641 0.124803 0.659130 -0.052753 -0.388458 0.919955
-0.083968 0.123867 0.659189 0.020352 -0.131831 0.991063
-0.075965 0.123945 0.658688 0.072952 -0.101605 0.992146
-0.068001 0.123885 0.658075 0.078729 -0.106038 0.991240
-0.060081 0.123921 0.657364 0.174851 -0.088636 0.980597
-0.055456 0.122044 0.656475 0.274521 -0.062993 0.959515
-0.112409 0.128419 0.658005 -0.757782 0.422473 0.497275
-0.107622 0.131570 0.659652 -0.260736 0.199395 0.944594
-0.100060 0.131961 0.660325 -0.006618 0.026197 0.999635
-0.092042 0.131931 0.660212 0.021599 -0.032906 0.999225
-0.084033 0.131878 0.659925 0.049377 -0.059631 0.996998
-0.075964 0.132008 0.659443 0.065572 -0.084638 0.994252
-0.067955 0.131917 0.658877 0.073260 -0.095778 0.992703
-0.060033 0.132091 0.658160 0.213253 -0.113945 0.970330
-0.055339 0.133883 0.657202 0.602661 -0.204512 0.771346
-0.105390 0.138006 0.658720 -0.438007 0.368998 0.819750
-0.099842 0.139771 0.659618 -0.133832 0.188719 0.972869
-0.091968 0.139939 0.660063 -0.026143 0.070361 0.997179
-0.083986 0.139908 0.660115 0.009784 0.015373 0.999834
-0.076041 0.139975 0.659937 0.033701 -0.020636 0.999219
-0.068021 0.140042 0.659574 0.057248 -0.052686 0.996969
-0.059943 0.139988 0.658979 0.141201 -0.088002 0.986062
-0.053990 0.140928 0.657465 0.506061 -0.212136 0.836003
-0.097934 0.145086 0.658463 -0.294648 0.473130 0.830259
-0.091584 0.146893 0.659081 -0.148736 0.285035 0.946907
-0.084064 0.147944 0.659551 -0.062911 0.157890 0.985451
-0.076029 0.148018 0.659790 -0.003067 0.063653 0.997967
-0.068013 0.148072 0.659625 0.030963 0.028520 0.999114
-0.060039 0.148023 0.659266 0.122686 0.050767 0.991146
-0.052319 0.148134 0.657174 0.308371 0.013397 0.951172
-0.043442 0.150475 0.656127 -0.041177 -0.165343 0.985376
-0.035166 0.149868 0.657353 -0.270661 -0.463241 0.843890
-0.028450 0.149312 0.657820 0.124316 -0.527718 0.840273
-0.021620 0.150601 0.656969 0.325391 -0.511458 0.795318
-0.082873 0.153025 0.658432 -0.192996 0.462714 0.865244
-0.075684 0.154540 0.658880 -0.110478 0.311587 0.943773
-0.068230 0.155445 0.658955 0.022029 0.245531 0.969138
-0.060619 0.153947 0.658377 0.185463 0.328404 0.926150
-0.051916 0.153345 0.656680 0.170030 0.240428 0.955659
-0.042620 0.155402 0.656478 -0.247132 -0.019069 0.968794
-0.036060 0.155873 0.658920 -0.329135 -0.141361 0.933642
-0.028003 0.155916 0.659945 0.067270 -0.134599 0.988614
-0.021504 0.155520 0.658735 0.361817 -0.195942 0.911425
-0.040403 0.161386 0.656542 -0.566331 0.281000 0.774796
-0.035668 0.163064 0.658149 -0.314964 0.373650 0.872458
-0.027923 0.163721 0.659065 -0.021551 0.346894 0.937657
-0.022660 0.162927 0.658790 0.300090 0.300165 0.905454
-0.032210 0.168149 0.656230 -0.205852 0.632948 0.746325
-0.027016 0.168588 0.656740 -0.092709 0.571508 0.815343
