x y z nx ny nz
-0.019620 0.019722 0.631953 0.018100 -0.103769 0.994437
0.004848 0.019110 0.631709 0.669900 -0.698812 -0.250792
0.013820 0.031461 0.631940 0.880195 -0.380629 -0.283510
-0.056505 0.035186 0.631988 -0.919747 -0.317685 -0.230526
-0.050366 0.037982 0.631759 -0.102692 -0.018033 0.994550
-0.046433 0.038727 0.631977 -0.085279 -0.023317 0.996084
-0.000208 0.034653 0.631880 0.059445 -0.043838 0.997269
0.004381 0.037548 0.631883 0.082854 -0.040371 0.995744
0.014884 0.035648 0.631617 0.911330 -0.293662 -0.288513
-0.051508 0.044733 0.631663 -0.130351 -0.002117 0.991466
0.006241 0.044282 0.631805 0.114289 -0.011840 0.993377
0.009399 0.044958 0.631429 0.118176 -0.009401 0.992948
-0.057474 0.051387 0.631500 -0.902851 0.086877 -0.421085
-0.052465 0.051611 0.631525 -0.124473 0.018361 0.992053
0.005930 0.052392 0.631817 0.102545 0.003408 0.994722
0.010038 0.051921 0.631389 0.115127 -0.000962 0.993350
-0.049965 0.059550 0.631543 -0.109845 0.043441 0.992999
-0.046455 0.060973 0.631779 -0.108691 0.047610 0.992935
0.004337 0.061017 0.631769 0.097508 0.047142 0.994118
0.009892 0.061715 0.631219 0.008690 -0.036739 0.999287
-0.049009 0.065711 0.631332 -0.088406 0.046659 0.994991
-0.043719 0.068091 0.631652 -0.065013 0.065508 0.995732
-0.038137 0.070403 0.631854 -0.088419 0.091774 0.991847
-0.002559 0.069948 0.631828 0.083675 0.095375 0.991919
0.003494 0.068116 0.631447 0.052733 0.029535 0.998172
0.009457 0.065839 0.631481 -0.060238 -0.076917 0.995216
-0.042742 0.074216 0.631578 -0.121944 0.132047 0.983714
-0.035813 0.075570 0.631631 -0.061921 0.063096 0.996085
-0.028182 0.077994 0.631785 -0.039990 0.114615 0.992605
-0.019917 0.078473 0.631795 0.022760 0.133490 0.990789
-0.012367 0.076848 0.631701 0.053635 0.107805 0.992724
-0.004194 0.075796 0.631481 0.015575 0.008144 0.999846
0.002217 0.073891 0.631476 -0.046926 -0.061938 0.996976
-0.034006 0.080526 0.631812 0.022642 -0.109020 0.993782
-0.027138 0.081205 0.631663 0.002473 0.012274 0.999922
-0.020349 0.081689 0.631517 0.011166 0.041867 0.999061
-0.011970 0.081418 0.631603 -0.000574 -0.054648 0.998506
-0.005880 0.080679 0.631691 -0.051911 -0.132854 0.989775
-0.026718 0.007590 0.637914 -0.142894 -0.987946 -0.059527
-0.020007 0.007257 0.637522 0.026602 -0.996725 -0.076367
-0.013990 0.007565 0.638032 0.189802 -0.978798 -0.077001
-0.042597 0.014073 0.637612 -0.535081 -0.840206 -0.087986
-0.036056 0.010671 0.637267 -0.375958 -0.922639 -0.085977
-0.029306 0.008618 0.637232 -0.220170 -0.972755 -0.072618
-0.020245 0.008189 0.634741 0.007128 -0.994279 -0.106572
-0.010593 0.008747 0.637085 0.262864 -0.960715 -0.089045
-0.003946 0.011083 0.637140 0.428705 -0.898326 -0.096034
0.002051 0.014495 0.637332 0.578062 -0.810177 -0.097249
-0.050534 0.021155 0.637202 -0.750081 -0.654196 -0.096986
-0.046253 0.017102 0.636302 -0.631381 -0.766008 -0.120791
-0.027055 0.022389 0.632363 -0.010001 -0.090978 0.995803
-0.020258 0.022307 0.632303 0.016671 -0.094252 0.995409
-0.013448 0.022495 0.632138 0.036110 -0.086081 0.995633
0.006123 0.017931 0.636952 0.671145 -0.733958 -0.104257
0.009815 0.021690 0.637427 0.770305 -0.629722 -0.100401
-0.056729 0.030550 0.637250 -0.901260 -0.424626 -0.086164
-0.054430 0.026597 0.636870 -0.850656 -0.516267 -0.099259
-0.042662 0.031818 0.632251 -0.070782 -0.023053 0.997225
-0.034799 0.029219 0.632655 -0.036678 -0.049719 0.998089
-0.027928 0.028633 0.632827 -0.017557 -0.054152 0.998378
-0.019891 0.028648 0.632873 0.016913 -0.062281 0.997915
-0.011859 0.028550 0.632544 0.040873 -0.064155 0.997103
-0.005151 0.029873 0.632372 0.048758 -0.057369 0.997162
0.013679 0.027529 0.637278 0.865909 -0.489209 -0.104293
0.016099 0.031955 0.638306 0.928617 -0.362974 -0.076942
-0.058612 0.036004 0.636909 -0.947719 -0.301100 -0.105678
-0.048824 0.038430 0.632111 -0.095628 -0.018350 0.995248
-0.043167 0.036491 0.632409 -0.070728 -0.024348 0.997198
-0.036461 0.036714 0.632832 -0.044813 -0.023158 0.998727
-0.028144 0.036968 0.633035 -0.014583 -0.025888 0.999559
-0.020384 0.037284 0.633110 0.003941 -0.026268 0.999647
-0.012265 0.036778 0.632972 0.035934 -0.033886 0.998779
-0.004314 0.036452 0.632543 0.054559 -0.037873 0.997792
0.000630 0.037646 0.632277 0.061366 -0.037289 0.997418
0.014809 0.032283 0.633505 0.908685 -0.370011 -0.193349
0.017300 0.036104 0.637264 0.950576 -0.292625 -0.103805
-0.060188 0.043965 0.636958 -0.986007 -0.105634 -0.128964
-0.048286 0.041404 0.632107 -0.104618 -0.014272 0.994410
-0.043056 0.044062 0.632545 -0.071942 -0.011849 0.997338
-0.035914 0.044317 0.632945 -0.041922 -0.010503 0.999066
-0.028079 0.043931 0.633103 -0.014471 -0.015374 0.999777
-0.020128 0.043929 0.633140 0.005832 -0.010274 0.999930
-0.012275 0.044173 0.632995 0.034729 -0.018672 0.999222
-0.004709 0.044398 0.632758 0.046672 -0.024653 0.998606
0.001306 0.043451 0.632387 0.074013 -0.024642 0.996953
0.018576 0.042744 0.636441 0.977411 -0.129759 -0.166822
-0.060117 0.051980 0.636803 -0.983274 0.103176 -0.150092
-0.048641 0.053051 0.632055 -0.108980 0.036348 0.993379
-0.043080 0.052217 0.632508 -0.074264 0.025206 0.996920
-0.035660 0.051892 0.632915 -0.043785 0.011805 0.998971
-0.028191 0.051921 0.633159 -0.017967 0.002384 0.999836
-0.020068 0.052012 0.633188 0.006039 -0.008010 0.999950
-0.012161 0.051927 0.633086 0.026667 -0.005277 0.999630
-0.004886 0.051898 0.632766 0.058651 0.006170 0.998260
0.002190 0.052128 0.632221 0.085828 0.009417 0.996265
0.018652 0.051695 0.636636 0.979741 0.135101 -0.147835
-0.058329 0.060035 0.636871 -0.940250 0.306747 -0.147773
-0.042666 0.059758 0.632316 -0.087110 0.046743 0.995101
-0.035925 0.060047 0.632743 -0.065911 0.032506 0.997296
-0.028082 0.060149 0.633131 -0.027995 0.013300 0.999520
-0.019945 0.060188 0.633253 0.004132 0.009598 0.999945
-0.012139 0.059894 0.633031 0.048076 0.016905 0.998701
-0.004323 0.060061 0.632557 0.070404 0.022330 0.997269
0.002152 0.059535 0.632165 0.092672 0.039245 0.994923
0.015341 0.062580 0.635916 0.895907 0.426712 -0.123563
0.017036 0.059143 0.637023 0.941973 0.315735 -0.114010
-0.056562 0.065235 0.637897 -0.897473 0.426070 -0.114049
-0.053642 0.068873 0.636046 -0.826776 0.498045 -0.261520
-0.042085 0.065703 0.632132 -0.013660 0.026454 0.999557
-0.035234 0.067754 0.632349 -0.083268 0.076690 0.993572
-0.028087 0.067873 0.632855 -0.041580 0.063434 0.997119
-0.020011 0.067988 0.632935 0.008180 0.067449 0.997689
-0.012267 0.067991 0.632666 0.057664 0.078978 0.995207
-0.005174 0.067093 0.632331 0.080377 0.083098 0.993295
0.003395 0.067220 0.632166 0.230882 0.173830 0.957328
0.012675 0.067917 0.636731 0.845113 0.528747 -0.078809
-0.050260 0.074195 0.636867 -0.746590 0.643055 -0.170538
-0.045745 0.077608 0.635744 -0.572159 0.728806 -0.376132
-0.033213 0.073279 0.632137 -0.093514 0.104909 0.990075
-0.027936 0.074110 0.632372 -0.043872 0.112842 0.992644
-0.020310 0.074723 0.632386 0.019576 0.114483 0.993232
-0.012895 0.073566 0.632203 0.060454 0.114988 0.991526
-0.002698 0.077434 0.632217 -0.071689 -0.114547 0.990828
0.004634 0.076963 0.636379 0.653168 0.754386 0.065373
0.009192 0.073375 0.637412 0.746660 0.656822 -0.105279
-0.042099 0.081263 0.637255 -0.544969 0.825411 -0.147328
-0.036009 0.084110 0.636459 -0.394964 0.911412 -0.115460
-0.028551 0.086287 0.636523 -0.205904 0.978555 -0.005820
-0.019822 0.086587 0.635558 0.017104 0.998543 0.051182
-0.011896 0.085933 0.636633 0.200645 0.979450 -0.020487
-0.004527 0.083132 0.636765 0.384980 0.921748 0.046591
0.000334 0.080761 0.637592 0.561035 0.827710 0.011686
-0.024530 0.088091 0.639084 -0.119112 0.991100 -0.059440
-0.020643 0.088175 0.638680 -0.017264 0.996611 -0.080431
-0.015963 0.088007 0.638389 0.094168 0.992224 -0.081386
-0.026791 0.007479 0.644175 -0.142014 -0.989654 -0.020445
-0.019987 0.007121 0.643998 0.017351 -0.999646 -0.020167
-0.013610 0.007493 0.644008 0.191197 -0.981325 -0.021099
-0.042888 0.013940 0.644047 -0.540207 -0.841359 -0.017064
-0.036154 0.010358 0.644222 -0.375849 -0.926488 -0.018888
-0.029815 0.008518 0.643782 -0.223650 -0.974421 -0.022008
-0.010448 0.008527 0.644075 0.261919 -0.964844 -0.021770
-0.003980 0.010764 0.644032 0.427788 -0.903669 -0.019472
0.002170 0.014278 0.643973 0.574600 -0.818252 -0.017272
-0.050665 0.020803 0.643985 -0.745204 -0.666555 -0.019382
-0.046786 0.016973 0.643824 -0.644487 -0.764398 -0.018222
0.006243 0.017524 0.644107 0.676306 -0.736336 -0.020464
0.010069 0.021560 0.644000 0.775283 -0.631303 -0.019804
-0.056836 0.030282 0.643937 -0.905144 -0.424551 -0.021701
-0.054657 0.026272 0.643977 -0.849774 -0.526812 -0.018782
-0.032807 0.028755 0.647387 0.542048 0.840017 -0.023578
-0.018958 0.025237 0.647527 -0.060741 0.998081 0.012046
0.014134 0.027644 0.644088 0.871736 -0.489539 -0.020683
0.016225 0.031152 0.644473 0.925979 -0.377062 -0.019646
-0.058996 0.036094 0.643984 -0.952888 -0.302649 -0.020219
-0.041766 0.035665 0.646568 0.896182 0.438138 -0.069949
0.018551 0.036491 0.644764 0.928244 -0.290436 0.232400
0.026334 0.039008 0.647383 -0.253442 0.313065 0.915291
-0.060661 0.043951 0.644186 -0.993242 -0.115561 -0.010778
-0.044397 0.043711 0.647559 0.993140 0.105992 -0.049393
0.020904 0.044197 0.645556 0.510287 -0.155519 0.845826
0.027728 0.045274 0.645709 -0.205582 -0.343259 0.916466
0.033894 0.045179 0.646893 -0.449827 -0.340171 0.825796
-0.060567 0.051897 0.644124 -0.994260 0.106906 -0.004367
-0.043824 0.055398 0.646281 0.871740 -0.305737 -0.382875
0.002315 0.052652 0.646416 -0.927202 -0.230342 -0.295361
0.020741 0.050867 0.645924 0.658181 -0.291450 0.694158
0.026644 0.048783 0.647355 -0.202490 -0.616172 0.761137
0.033557 0.048157 0.647420 -0.437882 -0.555301 0.707036
-0.058900 0.059923 0.644079 -0.955557 0.294467 -0.014125
-0.042197 0.060090 0.646102 0.826200 -0.439355 -0.352649
-0.039213 0.063557 0.647454 0.711985 -0.569678 -0.410542
-0.000332 0.058942 0.647810 -0.843612 -0.456223 -0.283161
0.000533 0.057424 0.647559 -0.876062 -0.382872 -0.293129
0.015658 0.063356 0.643715 0.904951 0.425188 -0.016677
0.017250 0.059792 0.643825 0.944964 0.326911 -0.013138
-0.056721 0.065536 0.644227 -0.900291 0.434879 -0.018891
-0.054396 0.069361 0.644216 -0.839320 0.543178 -0.022347
-0.041352 0.066871 0.642191 0.657617 -0.512850 -0.551838
-0.035902 0.067804 0.646575 0.575910 -0.700700 -0.421126
-0.030138 0.071082 0.646946 0.394259 -0.846618 -0.357488
-0.010765 0.071027 0.646871 -0.439553 -0.814903 -0.377791
-0.004581 0.067380 0.645365 -0.641482 -0.633292 -0.432947
0.013286 0.067909 0.644091 0.851096 0.524978 -0.005768
-0.050403 0.074727 0.644010 -0.752740 0.657924 -0.022791
-0.046212 0.078589 0.644140 -0.639757 0.768364 -0.018118
-0.020124 0.073058 0.647213 -0.050876 -0.945405 -0.321902
-0.013613 0.073021 0.645810 -0.317126 -0.867664 -0.382872
0.005231 0.077489 0.644172 0.646892 0.762483 -0.012235
0.009478 0.073447 0.643755 0.751085 0.659918 -0.019478
-0.042368 0.081605 0.644028 -0.553525 0.832519 -0.022849
-0.036046 0.084663 0.643957 -0.391039 0.920309 -0.010981
-0.028340 0.087006 0.644178 -0.200961 0.979553 -0.009471
-0.019486 0.086953 0.643215 0.028287 0.999361 -0.021844
-0.011753 0.086496 0.644022 0.213082 0.976960 -0.012046
-0.004442 0.083858 0.644077 0.391297 0.920184 -0.012162
0.001160 0.080670 0.644123 0.537426 0.843095 -0.019085
-0.024237 0.088087 0.642658 -0.107982 0.994136 -0.005840
-0.020285 0.088224 0.644002 -0.007671 0.999951 -0.006332
-0.015686 0.088035 0.644230 0.085277 0.996271 -0.013106
-0.032489 0.007964 0.648253 -0.263718 -0.964412 -0.019026
-0.026810 0.007426 0.652150 -0.147129 -0.989067 -0.010011
-0.019985 0.007012 0.652120 0.018655 -0.999786 -0.008974
-0.013572 0.007424 0.652067 0.193230 -0.981110 -0.009217
-0.043024 0.013904 0.652066 -0.542855 -0.839732 -0.012607
-0.035884 0.010155 0.652042 -0.369491 -0.929206 -0.007223
-0.030024 0.008488 0.651876 -0.230964 -0.972921 -0.008945
-0.010055 0.008519 0.651914 0.275303 -0.961323 -0.008145
-0.004029 0.010648 0.651975 0.423132 -0.906009 -0.010391
0.002429 0.014327 0.652002 0.581149 -0.813655 -0.015245
-0.050838 0.020819 0.652060 -0.746579 -0.665037 -0.018590
-0.046844 0.016945 0.652002 -0.647236 -0.762113 -0.016417
0.006335 0.017484 0.651918 0.671521 -0.740901 -0.011189
0.010054 0.021383 0.652044 0.771685 -0.635921 -0.010303
-0.056975 0.030071 0.652198 -0.901138 -0.432920 -0.023053
-0.054734 0.026155 0.651970 -0.847011 -0.531128 -0.021821
-0.034285 0.030840 0.655252 0.575670 0.713079 0.400153
-0.028716 0.028268 0.653529 0.391567 0.870658 0.297707
-0.020247 0.026398 0.653899 0.006759 0.960335 0.278767
-0.012533 0.027946 0.652811 -0.358650 0.909815 0.208821
-0.007700 0.029743 0.649840 -0.502688 0.839491 0.206300
0.014086 0.027354 0.651927 0.874003 -0.485894 -0.005013
0.016299 0.031330 0.652236 0.929340 -0.369200 -0.004249
-0.059105 0.035889 0.652206 -0.955663 -0.293737 -0.020661
-0.041362 0.038868 0.652025 0.931613 0.362477 -0.026605
-0.037264 0.035046 0.654347 0.779435 0.556304 0.288110
-0.004245 0.034446 0.652690 -0.709906 0.674983 0.201077
0.000000 0.039204 0.652894 -0.842194 0.396547 0.365322
0.015962 0.032291 0.650556 0.926866 -0.375339 -0.006393
0.017675 0.035997 0.651923 0.953724 -0.299496 0.026688
0.028826 0.039155 0.649021 -0.287817 0.071559 0.955008
0.035885 0.038960 0.652486 -0.561937 -0.454682 0.691007
0.041007 0.038773 0.655048 0.257375 -0.911548 -0.320684
-0.060699 0.044075 0.652103 -0.994561 -0.103369 -0.012776
-0.042136 0.045000 0.654025 0.990795 0.087802 0.103029
-0.000616 0.040821 0.654539 -0.908097 0.408842 0.090604
0.000633 0.045653 0.653661 -0.990986 0.118742 0.062023
0.019107 0.043559 0.652079 0.992323 -0.099934 0.072855
0.029138 0.042298 0.648951 -0.331860 0.127560 0.934664
0.036518 0.045077 0.650879 -0.638264 -0.346787 0.687283
0.041398 0.044795 0.653612 -0.941080 -0.064235 0.332029
-0.060598 0.051999 0.651959 -0.994651 0.102674 -0.011267
-0.042045 0.052245 0.653350 0.978765 -0.196080 -0.059765
-0.000497 0.054532 0.654713 -0.945323 -0.325369 0.022339
0.000765 0.051613 0.652233 -0.984031 -0.156763 -0.084315
0.019099 0.051728 0.651610 0.988521 0.053274 0.141377
0.028588 0.049084 0.649022 -0.246951 -0.675915 0.694373
0.035512 0.048944 0.652139 -0.508691 -0.647231 0.567736
0.041298 0.048728 0.654762 0.380555 0.797053 -0.468919
-0.058898 0.060044 0.651978 -0.955868 0.293349 -0.016223
-0.040938 0.057662 0.651859 0.904894 -0.385154 -0.181173
-0.038033 0.061731 0.653525 0.778856 -0.616392 -0.115949
-0.003038 0.060282 0.652984 -0.830329 -0.546624 -0.108426
0.000344 0.056480 0.650128 -0.928224 -0.349316 -0.127982
0.015686 0.063379 0.651664 0.895558 0.444740 -0.013478
0.017376 0.059607 0.652322 0.948228 0.317591 -0.000199
-0.056817 0.065600 0.652208 -0.901263 0.432764 -0.020984
-0.054469 0.069511 0.651875 -0.850197 0.526301 -0.013110
-0.034469 0.065847 0.652162 0.598963 -0.774682 -0.202761
-0.028106 0.069032 0.653269 0.349747 -0.929335 -0.118376
-0.019984 0.070634 0.653112 -0.027112 -0.992337 -0.120548
-0.012028 0.068878 0.652858 -0.458760 -0.874864 -0.155408
-0.006775 0.065467 0.652193 -0.703697 -0.697009 -0.137800
0.013162 0.068259 0.652330 0.841622 0.540017 -0.007341
0.016161 0.065123 0.650498 0.771454 0.523443 0.361755
-0.050640 0.074688 0.652072 -0.757582 0.652520 -0.016950
-0.046475 0.078600 0.651849 -0.641286 0.767178 -0.013803
-0.024782 0.072290 0.648461 0.168551 -0.939252 -0.298993
-0.017510 0.072294 0.648550 -0.137313 -0.926957 -0.349137
-0.015733 0.072254 0.648052 -0.216824 -0.917639 -0.333055
0.005103 0.077614 0.652214 0.639684 0.768635 -0.002240
0.009400 0.073593 0.652002 0.742469 0.669825 0.008549
-0.042542 0.081619 0.652025 -0.548353 0.836146 -0.013004
-0.035949 0.084763 0.651920 -0.376833 0.926180 -0.013698
-0.027909 0.087036 0.651944 -0.189028 0.981945 -0.007266
-0.019585 0.086873 0.651586 0.027258 0.999627 -0.001432
-0.012054 0.086596 0.652037 0.204835 0.978796 -0.000989
-0.003993 0.083685 0.651847 0.389749 0.920920 0.001331
0.000974 0.080792 0.651755 0.532332 0.846526 -0.004076
-0.020601 0.088207 0.651792 -0.014331 0.999897 0.000402
-0.015712 0.088029 0.648635 0.112772 0.993578 0.009290
-0.032268 0.007867 0.659291 -0.269487 -0.962943 -0.010820
-0.026976 0.007393 0.659926 -0.145412 -0.989348 -0.006783
-0.020008 0.006964 0.660058 0.016249 -0.999860 -0.003933
-0.013362 0.007420 0.660112 0.192786 -0.981228 -0.004981
-0.043075 0.013842 0.659954 -0.537879 -0.842959 -0.010294
-0.036123 0.010193 0.660019 -0.371996 -0.928194 -0.008599
-0.030152 0.008399 0.659773 -0.238573 -0.971068 -0.010499
-0.010082 0.008485 0.659764 0.272239 -0.962215 -0.005254
-0.004017 0.010583 0.659976 0.419694 -0.907645 -0.006161
0.002405 0.014197 0.660179 0.581546 -0.813484 -0.006972
-0.050965 0.020702 0.660020 -0.742780 -0.669340 -0.016188
-0.046963 0.016769 0.659783 -0.642022 -0.766536 -0.015201
-0.025655 0.023707 0.663632 0.209177 0.756596 0.619522
-0.020147 0.023677 0.662782 -0.022749 0.815600 0.578168
-0.015544 0.023792 0.663903 -0.201487 0.745773 0.635001
0.006429 0.017528 0.660063 0.673878 -0.738816 -0.006187
0.010088 0.021309 0.660083 0.773825 -0.633331 -0.009361
-0.057073 0.029842 0.660302 -0.900017 -0.435433 -0.019182
-0.054811 0.025915 0.660030 -0.843944 -0.536097 -0.018927
-0.034595 0.029680 0.661669 0.534103 0.626311 0.567863
-0.028144 0.026468 0.660769 0.328311 0.769267 0.548125
-0.019766 0.025882 0.660234 -0.047113 0.798259 0.600469
-0.011797 0.027656 0.660955 -0.318639 0.751961 0.577081
-0.005675 0.030094 0.661757 -0.490915 0.634360 0.597152
0.014151 0.027373 0.659902 0.872641 -0.488297 -0.007921
0.016304 0.031134 0.660123 0.930006 -0.367360 -0.011622
-0.059322 0.035971 0.660230 -0.957306 -0.287869 -0.026402
-0.041506 0.037949 0.662205 0.759619 0.342654 0.552781
-0.037933 0.034686 0.660027 0.702964 0.490751 0.514786
-0.002247 0.035800 0.661020 -0.692134 0.457394 0.558338
0.000517 0.037753 0.662301 -0.723941 0.351977 0.593314
0.017725 0.035869 0.660073 0.962769 -0.270283 -0.004748
0.039378 0.039170 0.657416 -0.689314 -0.614648 0.383476
0.042810 0.038753 0.660267 -0.143826 -0.989541 0.011028
-0.060872 0.044051 0.660153 -0.995401 -0.093903 -0.018930
-0.042954 0.044396 0.660987 0.887524 0.120828 0.444636
-0.039964 0.041178 0.657897 0.829524 0.219407 0.513567
-0.000511 0.042079 0.658654 -0.876240 0.280196 0.392039
0.001601 0.044332 0.661326 -0.838544 0.185516 0.512278
0.019192 0.043421 0.660131 0.995665 -0.092919 -0.004198
0.039279 0.040652 0.657169 -0.898462 0.060142 0.434912
0.044203 0.043656 0.660890 0.664883 -0.577167 -0.474140
-0.060778 0.052048 0.659911 -0.995518 0.089718 -0.029914
-0.042486 0.052277 0.660585 0.910583 -0.204436 0.359227
-0.039998 0.054191 0.659135 0.775856 -0.228130 0.588221
-0.000623 0.054863 0.658067 -0.891905 -0.352254 0.283589
0.001641 0.051826 0.660916 -0.869450 -0.171735 0.463210
0.019136 0.051740 0.659983 0.995922 0.089675 -0.009920
0.039487 0.049206 0.656737 -0.903724 -0.309528 0.295762
0.043295 0.048904 0.660140 -0.860290 0.504215 0.075282
-0.059216 0.059865 0.660063 -0.956666 0.289357 -0.032589
-0.041021 0.058278 0.661563 0.828654 -0.373558 0.416878
-0.038265 0.061571 0.660141 0.740147 -0.570340 0.356224
-0.002994 0.060642 0.660328 -0.740336 -0.555475 0.378617
0.000564 0.057547 0.662729 -0.752243 -0.382278 0.536650
0.015908 0.063048 0.658263 0.900454 0.434496 -0.019911
0.017272 0.060021 0.660108 0.944954 0.327018 -0.010993
-0.056979 0.065699 0.660211 -0.905154 0.424417 -0.023808
-0.054584 0.069777 0.659761 -0.846180 0.532268 -0.025901
-0.034570 0.066005 0.661305 0.550303 -0.704750 0.447765
-0.028032 0.069441 0.660873 0.312350 -0.849799 0.424592
-0.020053 0.070633 0.660294 -0.031160 -0.934810 0.353778
-0.011801 0.068732 0.660590 -0.448894 -0.823703 0.346422
-0.006504 0.065538 0.661611 -0.625907 -0.647615 0.434551
0.013621 0.067794 0.659997 0.860611 0.509165 0.010003
0.016915 0.064065 0.661424 0.940901 0.141713 0.307607
-0.050725 0.074869 0.660110 -0.754100 0.656359 -0.022948
-0.046416 0.078799 0.659860 -0.643815 0.765142 0.007812
-0.025059 0.072403 0.663563 0.158333 -0.746899 0.645812
-0.020436 0.072502 0.663350 -0.022586 -0.809224 0.587065
-0.015312 0.072338 0.663778 -0.215681 -0.790727 0.572916
0.005353 0.077495 0.660072 0.649644 0.760162 0.010820
0.009625 0.073421 0.660137 0.751496 0.659713 0.005740
-0.042845 0.081517 0.660075 -0.549879 0.835183 -0.010151
-0.036110 0.084961 0.659930 -0.389399 0.920852 -0.019995
-0.028292 0.087059 0.659742 -0.187020 0.982325 -0.007826
-0.019474 0.086963 0.659474 0.034556 0.999334 -0.011686
-0.011923 0.086589 0.659960 0.208553 0.978011 0.000296
-0.004063 0.083625 0.660027 0.401294 0.915932 0.005630
0.001059 0.080787 0.660091 0.533389 0.844627 0.045845
-0.024722 0.088104 0.661001 -0.107749 0.993993 -0.019169
-0.020089 0.088261 0.659821 0.007139 0.999890 -0.012967
-0.032333 0.007960 0.669683 -0.265575 -0.964077 0.005081
-0.026980 0.007369 0.667969 -0.134628 -0.989371 0.054967
-0.019895 0.006915 0.668038 0.015182 -0.996938 0.076706
-0.013333 0.007440 0.668224 0.182162 -0.982669 0.034344
-0.043143 0.013964 0.668393 -0.538418 -0.838616 0.082636
-0.036015 0.010789 0.668601 -0.330502 -0.914502 0.233355
-0.029277 0.010059 0.668527 -0.067056 -0.782943 0.618469
-0.019883 0.012509 0.668563 -0.080966 0.089739 0.992669
-0.010644 0.010079 0.668804 0.167861 -0.739411 0.651993
-0.004035 0.011163 0.668392 0.450282 -0.854653 0.258483
0.002392 0.014284 0.668387 0.604506 -0.778879 0.167094
-0.050930 0.020859 0.668460 -0.718477 -0.648346 0.251869
-0.045063 0.019002 0.669264 -0.339122 -0.193033 0.920725
-0.036061 0.020270 0.669618 0.210760 0.350098 0.912695
-0.028093 0.020359 0.667211 0.236929 0.506948 0.828775
-0.019753 0.019927 0.666506 -0.032762 0.556340 0.830308
-0.012092 0.020329 0.667510 -0.141436 0.473273 0.869487
-0.004243 0.020312 0.668533 -0.038159 0.236444 0.970896
0.005020 0.018828 0.668139 0.410313 -0.418925 0.810028
0.010029 0.021397 0.668303 0.730413 -0.633688 0.254825
-0.057148 0.029752 0.668647 -0.878724 -0.467347 0.097118
-0.053145 0.027524 0.669201 -0.237468 -0.325633 0.915190
-0.044081 0.028366 0.668738 0.266749 0.215665 0.939326
-0.036895 0.027211 0.666192 0.434051 0.522412 0.733952
-0.030479 0.024651 0.664795 0.336681 0.677911 0.653516
-0.016831 0.024828 0.664239 -0.209763 0.669445 0.712631
-0.010688 0.025116 0.665261 -0.248971 0.631415 0.734389
-0.003412 0.027461 0.666325 -0.355788 0.423762 0.832971
0.003789 0.028552 0.668436 -0.266979 0.082101 0.960199
0.012877 0.027790 0.668900 0.525135 -0.442815 0.726739
0.016334 0.031311 0.668275 0.934918 -0.354070 0.023722
-0.059030 0.036195 0.668900 -0.928589 -0.279540 0.244090
-0.051870 0.036238 0.670288 0.336796 0.060294 0.939645
-0.044897 0.035992 0.666924 0.565189 0.242979 0.788367
-0.039380 0.032783 0.664763 0.617077 0.429749 0.659190
-0.001020 0.033086 0.664938 -0.569422 0.413454 0.710503
0.004280 0.036189 0.667226 -0.508540 0.245549 0.825284
0.011560 0.035908 0.669977 -0.214674 0.175814 0.960731
0.017662 0.036376 0.668734 0.913260 -0.131033 0.385729
0.044913 0.038470 0.668151 0.061370 -0.996961 -0.047992
0.048192 0.039283 0.670353 0.961382 -0.263962 -0.077905
-0.059732 0.044108 0.669360 -0.610877 0.068729 0.788737
-0.051710 0.043856 0.669573 0.349417 0.071169 0.934260
-0.046076 0.043946 0.666069 0.693211 0.074454 0.716878
0.005463 0.043877 0.666127 -0.590480 0.139493 0.794905
0.011688 0.044055 0.668473 -0.121330 0.133002 0.983661
0.018609 0.043973 0.668367 0.311263 0.124829 0.942090
0.039992 0.044478 0.665693 -0.923813 -0.354066 0.145629
0.042408 0.043022 0.667381 -0.866462 -0.489339 0.098950
0.048586 0.043880 0.668873 0.991247 -0.055308 -0.119880
-0.059816 0.051995 0.669133 -0.567167 -0.017509 0.823417
-0.051691 0.052004 0.669531 0.296341 -0.066104 0.952792
-0.045735 0.052509 0.666233 0.669926 -0.135641 0.729932
0.005470 0.052355 0.666162 -0.587559 -0.149072 0.795332
0.011689 0.052146 0.668395 -0.105094 -0.134608 0.985310
0.018393 0.051772 0.668477 -0.215534 -0.208594 0.953957
0.046094 0.048987 0.668064 0.406470 0.912617 -0.043723
0.048559 0.048710 0.671069 0.844008 0.534563 0.043506
-0.058669 0.059724 0.669195 -0.785573 0.148456 0.600696
-0.051628 0.060027 0.670261 0.267233 -0.095832 0.958855
-0.044468 0.060305 0.667030 0.565780 -0.245859 0.787049
-0.039418 0.063287 0.665010 0.566254 -0.426161 0.705509
-0.001412 0.062588 0.664951 -0.572407 -0.467876 0.673382
0.003981 0.060162 0.667402 -0.497148 -0.279138 0.821538
0.011798 0.060084 0.670058 -0.186316 -0.229529 0.955302
0.017116 0.059424 0.669248 0.299897 -0.125462 0.945685
-0.057084 0.065843 0.668394 -0.896583 0.440781 0.043013
-0.052241 0.068164 0.670092 0.125420 0.036651 0.991427
-0.043784 0.067839 0.668645 0.340255 -0.205412 0.917623
-0.036594 0.068882 0.666018 0.397264 -0.466599 0.790232
-0.030024 0.070957 0.664784 0.273062 -0.612190 0.742066
-0.017587 0.071624 0.664270 -0.170490 -0.768381 0.616867
-0.010777 0.070750 0.665238 -0.338183 -0.668577 0.662297
-0.003751 0.068373 0.666759 -0.372260 -0.436982 0.818822
0.003709 0.067693 0.668948 -0.240828 -0.077851 0.967440
0.011567 0.067845 0.669858 -0.108742 0.132643 0.985181
0.016802 0.064252 0.669025 0.988382 -0.132129 0.075126
-0.050440 0.074664 0.669104 -0.469714 0.476459 0.743206
-0.044101 0.076244 0.669699 0.114700 -0.207664 0.971452
-0.035773 0.075887 0.668642 0.185816 -0.324167 0.927571
-0.028097 0.075787 0.667117 0.141102 -0.471999 0.870234
-0.019844 0.075980 0.666955 -0.094869 -0.542039 0.834981
-0.012207 0.075763 0.668304 -0.203489 -0.490513 0.847342
-0.004293 0.075821 0.669304 -0.001567 -0.267403 0.963583
0.003988 0.076189 0.668974 -0.137461 -0.212318 0.967484
0.009296 0.073467 0.669356 -0.365174 -0.046254 0.929790
-0.042315 0.081471 0.669156 -0.495856 0.667846 0.555075
-0.035708 0.083058 0.669887 -0.007673 -0.162548 0.986671
-0.027977 0.084024 0.669457 0.169836 -0.271154 0.947434
-0.020031 0.084204 0.669468 -0.106364 -0.320332 0.941315
-0.012505 0.083568 0.670323 -0.231860 -0.183744 0.955238
-0.004122 0.082174 0.670035 0.170946 -0.266442 0.948571
0.000988 0.080778 0.669592 -0.083260 -0.530559 0.843549
-0.025052 0.088182 0.668049 -0.114046 0.993421 -0.010360
-0.019737 0.088365 0.667906 0.018964 0.999725 -0.013777
-0.032516 0.007932 0.675266 -0.254194 -0.967151 -0.002088
-0.026998 0.007357 0.676070 -0.142188 -0.989752 0.013184
-0.020066 0.006855 0.676122 0.013032 -0.999911 0.002862
-0.013203 0.007366 0.675993 0.191889 -0.981247 0.018262
-0.043182 0.013781 0.675974 -0.541685 -0.836425 0.083485
-0.036023 0.010102 0.675938 -0.348383 -0.934358 0.074867
-0.030238 0.008363 0.675959 -0.227813 -0.973639 0.011298
-0.017323 0.008130 0.677773 -0.110620 0.993720 0.016829
-0.010114 0.008575 0.675933 0.302746 -0.951969 0.045819
-0.003972 0.010568 0.675992 0.432968 -0.900838 0.032077
0.002382 0.014171 0.676079 0.589062 -0.807823 0.020715
-0.051133 0.020620 0.676044 -0.730732 -0.680883 0.049286
-0.047217 0.016904 0.676004 -0.639768 -0.765248 0.071361
0.006386 0.017507 0.675843 0.669123 -0.742001 0.041352
0.010104 0.021313 0.676090 0.775611 -0.630803 0.022712
-0.057191 0.029711 0.676133 -0.843710 -0.502709 0.188249
-0.054955 0.025729 0.676054 -0.827665 -0.558307 0.057136
0.014217 0.027470 0.675863 0.836957 -0.506879 0.206342
0.016378 0.031096 0.676094 0.912334 -0.394299 0.110339
-0.059406 0.036140 0.675674 -0.631754 -0.229715 0.740350
0.015978 0.032240 0.677532 -0.918265 0.395840 0.009989
0.017822 0.035987 0.675943 0.952829 -0.149789 0.263971
0.045604 0.038348 0.676226 0.288406 -0.957295 0.020225
0.048214 0.039425 0.674537 0.938488 -0.342176 0.046432
-0.061019 0.043913 0.675979 -0.923898 -0.058411 0.378155
0.019191 0.043856 0.675940 -0.987479 0.079978 0.135971
0.043321 0.042400 0.676417 -0.448948 -0.893032 0.030647
0.048634 0.043839 0.675962 0.992632 -0.076702 0.093796
-0.060881 0.051936 0.676049 -0.653072 -0.135257 0.745119
0.019076 0.051874 0.676128 -0.993957 -0.104309 0.034184
0.046866 0.049239 0.676770 0.898749 0.420918 0.122793
0.048335 0.048628 0.676200 0.963745 0.252734 0.085568
-0.059194 0.060097 0.675772 -0.100789 -0.317599 0.942854
0.015770 0.063649 0.675573 -0.873715 -0.430542 0.226398
0.017364 0.059844 0.676005 -0.941886 -0.297418 0.156183
-0.056934 0.065946 0.676192 -0.696906 0.280101 0.660201
-0.054548 0.069647 0.675840 0.833185 -0.480443 0.273820
0.013352 0.068231 0.675922 -0.840814 -0.495064 0.218961
0.016261 0.064238 0.675559 -0.655220 -0.545289 0.522825
-0.050683 0.074749 0.676014 0.620011 -0.745412 0.244841
-0.046164 0.078486 0.675987 0.581989 -0.803435 0.125623
0.005095 0.077562 0.676144 -0.643965 -0.764472 0.029841
0.009359 0.073687 0.676010 -0.749582 -0.657999 0.071862
-0.042339 0.081482 0.675961 0.427180 -0.847846 0.314124
-0.035946 0.084380 0.675844 0.320272 -0.919982 0.225963
-0.028342 0.086435 0.675853 0.176346 -0.977867 0.112597
-0.020046 0.086973 0.675994 -0.047330 -0.997058 0.060296
-0.011704 0.085871 0.675632 -0.277304 -0.918884 0.280633
-0.004293 0.083494 0.675821 -0.364176 -0.901493 0.233851
0.001109 0.080866 0.675953 -0.534485 -0.842802 0.063325
-0.025455 0.088163 0.675847 -0.130271 0.991478 0.000714
-0.020100 0.088421 0.675923 0.002034 0.999996 -0.002149
-0.015828 0.088243 0.678349 0.096998 0.995278 0.003595
-0.032222 0.007852 0.684051 -0.266783 -0.963724 -0.007899
-0.027208 0.007322 0.683871 -0.152224 -0.988271 -0.012198
-0.020025 0.006820 0.684263 0.033965 -0.999414 -0.004160
-0.013156 0.007376 0.683849 0.201022 -0.979584 -0.002195
-0.043225 0.013793 0.683953 -0.527684 -0.849437 0.002351
-0.036072 0.010074 0.684114 -0.367478 -0.930026 -0.003462
-0.030185 0.008349 0.683929 -0.250361 -0.968143 -0.004341
-0.018596 0.008047 0.684144 -0.054141 0.998450 0.012897
-0.010254 0.008515 0.684040 0.290593 -0.956847 0.000242
-0.003996 0.010533 0.684161 0.418229 -0.908339 -0.002298
0.002421 0.014208 0.684213 0.593944 -0.804495 -0.004232
-0.051090 0.020642 0.684043 -0.726649 -0.686991 0.004991
-0.047039 0.016727 0.684229 -0.635607 -0.771976 0.007534
0.006311 0.017501 0.684164 0.699330 -0.714679 0.013111
0.010236 0.021425 0.684209 0.787680 -0.616056 0.005990
-0.057220 0.029727 0.683917 -0.889375 -0.457152 0.004842
-0.054953 0.025808 0.683953 -0.826170 -0.563333 0.009987
0.014133 0.027334 0.684145 0.863972 -0.503058 0.022030
0.016389 0.031199 0.684152 0.927581 -0.373563 0.006609
-0.059547 0.036002 0.683939 -0.941774 -0.335701 0.019138
0.015961 0.032314 0.684229 -0.919792 0.392406 0.000556
0.017826 0.035954 0.684145 0.973317 -0.219977 0.065298
0.044535 0.038454 0.684016 0.547477 -0.816582 0.182929
-0.061003 0.044000 0.684040 -0.980671 -0.188080 0.053954
0.019238 0.043693 0.684008 -0.995091 0.096163 0.023378
0.046461 0.043552 0.684543 0.941953 -0.161411 0.294399
0.048246 0.044700 0.682076 0.966359 0.078024 0.245077
-0.060906 0.051962 0.684031 -0.628621 -0.776627 -0.041068
0.019131 0.052221 0.684190 -0.994574 -0.103538 0.010093
0.046177 0.049225 0.684523 0.907747 0.304600 0.288467
0.048216 0.048338 0.682707 0.911976 0.367745 0.181835
-0.059213 0.060001 0.683967 0.660492 -0.749995 -0.035474
0.015704 0.063422 0.684263 -0.909896 -0.414791 0.006194
0.017421 0.059921 0.684003 -0.960391 -0.278571 0.006833
-0.056963 0.065912 0.684092 -0.986354 0.164574 0.004611
-0.054567 0.069732 0.684168 0.818742 -0.574114 -0.007407
0.013507 0.067997 0.683975 -0.848402 -0.529351 0.001323
0.016037 0.064592 0.683793 -0.912782 -0.408429 0.003848
-0.050615 0.074897 0.684016 0.678492 -0.734578 -0.006630
-0.046068 0.078688 0.684124 0.586554 -0.809832 0.011280
0.004974 0.077675 0.684061 -0.638200 -0.769870 -0.001086
0.009436 0.073639 0.684152 -0.753218 -0.657765 -0.002716
-0.042301 0.081464 0.683977 0.485285 -0.874312 0.008732
-0.036075 0.084407 0.683945 0.344316 -0.938837 0.005533
-0.028143 0.086520 0.683846 0.164521 -0.986244 0.015978
-0.020085 0.087039 0.683980 -0.037760 -0.999211 0.012303
-0.011989 0.086142 0.684013 -0.221534 -0.975132 0.006299
-0.004115 0.083502 0.683970 -0.430180 -0.902733 0.004348
0.001106 0.080854 0.684230 -0.568141 -0.822931 0.000705
-0.025299 0.088181 0.684864 -0.126482 0.991965 -0.002745
-0.020726 0.088439 0.683942 -0.009457 0.999954 0.001278
-0.015240 0.088149 0.683850 0.101298 0.994855 -0.001298
-0.032718 0.007905 0.693663 -0.260065 -0.965591 -0.000516
-0.027211 0.007260 0.691850 -0.153417 -0.988160 -0.001702
-0.019820 0.006850 0.692024 0.032761 -0.999463 -0.000790
-0.012953 0.007369 0.691944 0.208875 -0.977928 -0.005334
-0.043186 0.013859 0.691796 -0.534375 -0.845190 0.009818
-0.036196 0.010119 0.691908 -0.374274 -0.927318 0.000007
-0.030034 0.008418 0.691923 -0.287608 -0.957747 -0.001684
-0.018209 0.008050 0.691711 -0.056516 0.998387 0.005422
-0.010422 0.008639 0.692099 0.959776 -0.277807 0.040666
-0.003905 0.010645 0.691954 0.410974 -0.911632 -0.005335
0.002432 0.014126 0.692148 0.598314 -0.801181 -0.011398
-0.051033 0.020702 0.691959 -0.725226 -0.688259 0.018621
-0.047007 0.016855 0.692093 -0.637456 -0.770214 0.020507
0.006285 0.017422 0.691824 0.725455 -0.688046 -0.017549
0.010222 0.021397 0.691999 0.799528 -0.600617 -0.003761
-0.057176 0.029739 0.691956 -0.885674 -0.464267 0.006131
-0.054927 0.025904 0.691967 -0.824554 -0.565479 0.018578
0.014213 0.027307 0.691943 0.500371 0.750130 0.432358
0.016405 0.031022 0.692294 0.921752 -0.387778 0.001132
-0.059457 0.035960 0.691928 -0.946962 -0.321316 0.004420
0.015988 0.032178 0.692492 -0.919807 0.392262 0.009205
0.018107 0.035916 0.692153 -0.862878 -0.421434 0.278988
0.028739 0.038370 0.695191 0.075368 -0.652377 0.754137
0.036560 0.038637 0.694169 0.280559 -0.636720 0.718244
0.042173 0.038559 0.690778 0.596779 -0.587114 0.546948
-0.060932 0.043999 0.691924 -0.976943 -0.211577 0.028586
0.019306 0.043982 0.692022 -0.995365 0.093616 0.022016
0.038708 0.042471 0.695445 0.445724 -0.292850 0.845913
0.043088 0.043870 0.692359 0.739987 -0.112644 0.663121
-0.060830 0.052014 0.692029 -0.956920 -0.288134 -0.035816
0.019165 0.052329 0.692063 -0.997824 -0.065886 0.002580
0.029020 0.051081 0.695466 0.145713 0.467611 0.871842
0.037156 0.049880 0.694824 0.374422 0.428699 0.822207
0.042656 0.049229 0.691807 0.696925 0.332007 0.635662
-0.059110 0.060056 0.692028 0.771568 -0.635272 -0.033358
0.015850 0.063438 0.692004 -0.919098 -0.394004 -0.004532
0.017519 0.059792 0.692057 -0.959069 -0.283058 0.008024
-0.056933 0.065783 0.691987 -0.974622 0.223839 0.002806
-0.054459 0.069610 0.692044 0.826205 -0.563244 -0.011897
0.013415 0.068102 0.692055 -0.843252 -0.537504 -0.003812
0.016223 0.064227 0.692740 -0.905307 -0.424741 -0.003867
-0.050628 0.074780 0.692012 0.663913 -0.747625 -0.016607
-0.046125 0.078651 0.692127 0.594805 -0.803849 -0.005879
0.005110 0.077567 0.691991 -0.648175 -0.761469 0.005790
0.009443 0.073571 0.691970 -0.745510 -0.666494 -0.000804
-0.042344 0.081456 0.692058 0.460959 -0.887395 0.006883
-0.036051 0.084396 0.691924 0.355288 -0.934756 -0.001657
-0.028281 0.086577 0.691963 0.157563 -0.987485 0.006799
-0.020030 0.087054 0.692108 -0.034597 -0.999326 0.012245
-0.011900 0.086196 0.691958 -0.222670 -0.974757 0.016318
-0.004058 0.083476 0.691990 -0.436138 -0.899821 0.010272
0.001179 0.080769 0.692208 -0.557587 -0.830082 0.007762
-0.025380 0.088209 0.692140 -0.123295 0.992368 -0.002208
-0.020064 0.088436 0.691872 0.006256 0.999953 -0.007344
-0.014591 0.088147 0.692176 0.110260 0.993878 -0.007036
-0.032108 0.007924 0.698170 -0.267623 -0.963498 0.006991
-0.027213 0.007297 0.698781 -0.147341 -0.988381 0.037325
-0.020044 0.006985 0.698896 0.153603 -0.977452 0.144895
-0.012926 0.007272 0.698768 0.220765 -0.975042 0.023592
-0.042994 0.013845 0.699364 -0.551336 -0.830713 0.077094
-0.035965 0.010106 0.699409 -0.373283 -0.925898 0.058078
-0.029386 0.008466 0.699762 0.147197 0.988440 0.036329
-0.021379 0.008044 0.699142 0.038634 0.999252 0.001377
-0.010928 0.008664 0.699673 -0.188214 0.982048 0.012565
-0.003913 0.010614 0.699464 0.464873 -0.855445 0.228267
0.002461 0.014131 0.699759 0.675505 -0.729499 0.107353
-0.050990 0.020825 0.699507 -0.718153 -0.692009 0.073351
-0.046995 0.016872 0.699280 -0.583372 -0.802628 0.124361
0.006308 0.017535 0.699875 -0.620908 0.781738 0.057962
0.010255 0.021428 0.699650 0.858216 -0.505503 0.089065
-0.057135 0.029877 0.699624 -0.859060 -0.506719 0.072469
-0.054824 0.025894 0.699544 -0.818116 -0.567834 0.090826
0.014152 0.027268 0.699766 -0.836132 0.547313 0.036500
0.016453 0.030980 0.699722 0.936236 -0.348576 0.044246
-0.059374 0.036034 0.699761 -0.925999 -0.355437 0.127242
0.018588 0.036458 0.699479 -0.542950 -0.361206 0.758113
0.028047 0.039136 0.696589 0.083060 -0.524307 0.847468
0.033161 0.039180 0.696196 0.157452 -0.485070 0.860183
-0.060870 0.043965 0.699721 0.907276 -0.382206 0.175411
0.020375 0.043740 0.699793 -0.518844 -0.075006 0.851572
0.028410 0.043846 0.698017 0.094954 -0.151082 0.983950
0.035566 0.044009 0.697111 0.263242 -0.131913 0.955669
0.040248 0.044268 0.696221 0.446812 0.053263 0.893041
-0.060800 0.052054 0.699881 0.944929 -0.325713 0.031936
0.019674 0.051871 0.699811 -0.886419 0.082344 0.455501
0.028152 0.049580 0.697562 0.118706 0.279368 0.952818
0.035170 0.048948 0.696795 0.261448 0.271848 0.926144
-0.058995 0.060064 0.699998 0.917906 -0.396587 0.012959
0.015676 0.063347 0.699554 -0.907232 -0.419896 0.024851
0.017499 0.059763 0.699783 -0.950273 -0.311413 0.001945
-0.056815 0.065637 0.699973 0.786359 -0.614791 0.060602
-0.054386 0.069539 0.699932 0.829298 -0.558788 0.004505
0.013353 0.068146 0.700001 -0.851072 -0.524971 0.009037
0.016085 0.064630 0.700532 -0.900564 -0.434718 0.002321
-0.050478 0.074731 0.699994 0.700693 -0.713329 0.013858
-0.046119 0.078549 0.700182 0.603770 -0.797159 0.000176
0.005011 0.077650 0.699994 -0.650308 -0.759558 0.013048
0.009381 0.073720 0.699780 -0.751096 -0.660155 0.007032
-0.042235 0.081453 0.700017 0.490468 -0.871421 -0.008214
-0.036029 0.084416 0.700003 0.356491 -0.934290 0.003994
-0.028165 0.086612 0.699985 0.165077 -0.986155 0.015738
-0.019984 0.087134 0.700173 -0.027803 -0.999493 0.015492
-0.011989 0.086284 0.700024 -0.217858 -0.975779 0.019848
-0.003979 0.083533 0.699963 -0.443643 -0.896101 0.013539
0.001175 0.080814 0.700315 -0.558604 -0.829272 0.016399
-0.025392 0.088210 0.699990 -0.128953 0.991553 -0.013883
-0.019828 0.088511 0.700000 0.001472 0.999871 -0.015977
-0.014079 0.088152 0.698871 0.119205 0.992846 -0.006793
-0.041709 0.007032 0.710431 -0.028849 -0.051986 0.998231
-0.035612 0.005673 0.710657 0.014459 0.032398 0.999370
-0.027867 0.004503 0.710323 0.032690 0.163553 0.985993
-0.019899 0.004063 0.710097 0.007427 0.202215 0.979313
-0.012084 0.004625 0.710292 -0.020327 0.143992 0.989370
-0.004589 0.005920 0.710551 0.001253 0.029175 0.999574
0.001108 0.007167 0.710179 0.022306 -0.019785 0.999555
-0.050544 0.013742 0.710501 -0.016538 -0.019338 0.999676
-0.044372 0.011551 0.710169 0.145867 0.225735 0.963206
-0.036944 0.009588 0.709091 0.233956 0.551670 0.800578
-0.029026 0.008501 0.707025 0.198412 0.893978 0.401790
-0.017374 0.008066 0.706493 -0.072182 0.986874 0.144466
-0.011185 0.008589 0.707314 -0.186258 0.847091 0.497739
-0.003402 0.009948 0.709028 -0.241398 0.559547 0.792865
0.003898 0.012009 0.710021 -0.153514 0.226567 0.961822
0.009974 0.014185 0.710375 0.030460 -0.034433 0.998943
-0.057644 0.021574 0.710506 0.011303 0.001473 0.999935
-0.052770 0.019294 0.709909 0.264671 0.229035 0.936746
-0.047060 0.016721 0.707434 0.535901 0.612576 0.581000
0.006420 0.017360 0.707816 -0.540034 0.616979 0.572452
0.012047 0.019928 0.709860 -0.295418 0.249736 0.922150
0.016958 0.022250 0.710443 0.024363 -0.024246 0.999409
-0.064204 0.031466 0.709926 -0.118220 -0.047784 0.991837
-0.059644 0.028258 0.710149 0.245938 0.115719 0.962353
-0.055040 0.025492 0.708098 0.634531 0.398711 0.662118
0.014431 0.026852 0.708042 -0.674432 0.400784 0.620091
0.018689 0.028424 0.710320 -0.168688 0.085040 0.981994
-0.064907 0.036998 0.710466 -0.093088 -0.014486 0.995552
-0.061149 0.035654 0.709413 0.502690 0.144826 0.852249
0.020252 0.035891 0.709531 -0.445256 0.133105 0.885455
0.024596 0.038566 0.709969 0.148082 -0.020071 0.988771
-0.065573 0.044098 0.710594 -0.002962 -0.002696 0.999992
-0.061958 0.043923 0.708920 0.617461 0.048246 0.785120
0.021089 0.043919 0.709269 -0.563856 0.053023 0.824169
0.024697 0.044012 0.710195 0.176673 -0.010660 0.984212
-0.065527 0.051799 0.710549 0.011888 -0.005757 0.999913
-0.061782 0.052102 0.708808 0.597308 -0.079837 0.798028
0.020969 0.052053 0.709281 -0.571729 -0.069981 0.817452
0.024619 0.051165 0.710209 0.074204 0.005948 0.997225
-0.064871 0.058959 0.710356 -0.082032 0.022155 0.996383
-0.060763 0.060201 0.709249 0.488823 -0.166841 0.856281
-0.055905 0.063558 0.708224 0.232848 -0.119935 0.965089
0.015760 0.063408 0.706790 -0.816866 -0.379708 0.434224
0.019587 0.059963 0.709325 -0.510965 -0.161247 0.844342
0.024446 0.057781 0.710291 -0.314571 -0.067907 0.946802
-0.064090 0.064441 0.710279 0.207772 -0.062522 0.976177
-0.059025 0.067406 0.709980 0.270474 -0.153548 0.950403
-0.054532 0.069831 0.707805 0.686310 -0.465179 0.559095
0.013877 0.068794 0.708250 -0.660319 -0.416016 0.625227
0.018276 0.067165 0.710491 -0.232147 -0.124752 0.964647
-0.057328 0.074133 0.710492 -0.028116 0.017273 0.999455
-0.051886 0.075953 0.709468 0.350983 -0.339256 0.872764
-0.046215 0.078679 0.707751 0.513717 -0.686610 0.514453
0.005575 0.078025 0.708041 -0.538384 -0.626008 0.564143
0.011324 0.075320 0.709872 -0.367341 -0.327389 0.870561
0.016711 0.073122 0.710252 -0.002996 -0.009078 0.999954
-0.050167 0.081634 0.710640 0.002357 -0.019947 0.999798
-0.043551 0.083302 0.709759 0.246587 -0.390454 0.886984
-0.036290 0.085354 0.708578 0.271498 -0.678235 0.682851
-0.028330 0.086911 0.707732 0.167350 -0.871026 0.461853
-0.019867 0.087309 0.707181 -0.035142 -0.930200 0.365368
-0.011596 0.086622 0.707949 -0.203808 -0.840628 0.501804
-0.003745 0.084899 0.708941 -0.303671 -0.638794 0.706913
0.003151 0.082902 0.710136 -0.240336 -0.366412 0.898877
0.009320 0.081144 0.710658 -0.106926 -0.114222 0.987684
-0.041232 0.088448 0.710467 0.055275 -0.082375 0.995067
-0.035383 0.089589 0.710780 0.044952 -0.178334 0.982943
-0.027726 0.090386 0.710612 0.053769 -0.324178 0.944467
-0.020101 0.090472 0.710377 -0.012755 -0.385741 0.922519
-0.012352 0.090130 0.710654 -0.073631 -0.340836 0.937235
-0.005098 0.089270 0.710824 -0.090121 -0.226310 0.969877
0.001152 0.088417 0.710416 -0.142803 -0.304164 0.941855
