x y z nx ny nz
0.004029 -0.025813 0.636132 -0.039949 -0.999025 -0.018809
0.011742 -0.025498 0.635798 0.102075 -0.994443 -0.025762
0.018553 -0.025021 0.636498 0.259324 -0.962585 -0.078616
-0.032949 -0.016309 0.635393 -0.440872 -0.897347 -0.020009
-0.027800 -0.018360 0.635837 -0.427071 -0.903912 -0.023520
-0.020001 -0.021283 0.635695 -0.339430 -0.940158 -0.029850
-0.012571 -0.023482 0.635778 -0.190913 -0.980659 -0.043121
-0.007776 -0.023818 0.636724 -0.162726 -0.986273 -0.028050
0.022643 -0.022248 0.636141 0.752494 -0.642914 -0.142879
0.025065 -0.018293 0.636885 0.887320 -0.449442 -0.103271
-0.042879 -0.009508 0.635979 -0.555247 -0.831386 -0.022331
-0.036297 -0.014008 0.635958 -0.495999 -0.868095 -0.019914
-0.031636 -0.015749 0.637551 -0.434951 -0.899551 -0.040327
0.027974 -0.011985 0.636966 0.914161 -0.396583 -0.083857
-0.051108 -0.002480 0.636251 -0.678237 -0.734477 -0.023188
-0.046887 -0.006767 0.636271 -0.674118 -0.737928 -0.032058
0.030853 -0.004415 0.636597 0.958585 -0.262407 -0.110716
0.032271 -0.000906 0.638463 0.993085 -0.075639 -0.089780
-0.057974 0.005315 0.636105 -0.790788 -0.611263 -0.031804
-0.055232 0.001238 0.636282 -0.765149 -0.641915 -0.049925
0.029788 0.004340 0.636114 0.864390 0.495801 -0.083729
0.032201 0.000862 0.637834 0.984565 0.141100 -0.103552
-0.062109 0.011431 0.636475 -0.944472 -0.304675 -0.123063
0.021775 0.014280 0.636035 0.690144 0.723620 -0.008701
0.025394 0.010351 0.636209 0.785058 0.619082 -0.020536
-0.060796 0.020003 0.636696 -0.930904 0.328656 -0.159381
0.013299 0.021890 0.636308 0.601472 0.798880 -0.004732
0.017702 0.018178 0.635813 0.693346 0.720605 0.000689
-0.057684 0.027529 0.636782 -0.897136 0.415883 -0.148957
-0.055496 0.030922 0.635214 -0.872222 0.440926 -0.211692
-0.001949 0.030860 0.635630 0.449692 0.892224 -0.041394
0.004551 0.028024 0.636111 0.473452 0.880604 -0.019503
0.009004 0.024863 0.635804 0.580886 0.813889 -0.012528
-0.056167 0.032210 0.639494 -0.886449 0.458215 -0.065177
-0.052697 0.035896 0.636538 -0.717909 0.677439 -0.160258
-0.044106 0.038493 0.636008 -0.123046 0.991424 -0.044019
-0.035986 0.039038 0.636012 -0.014912 0.999292 -0.034539
-0.028228 0.038770 0.636288 0.055067 0.997865 -0.035127
-0.020069 0.037323 0.636017 0.183814 0.981782 -0.048134
-0.012218 0.035320 0.635956 0.294638 0.954355 -0.048941
-0.005310 0.033133 0.636043 0.362347 0.931412 -0.034298
-0.037235 0.040079 0.636526 -0.027089 0.999169 -0.030461
-0.010567 -0.024510 0.644520 -0.204668 -0.977319 0.054397
-0.004146 -0.025447 0.644532 -0.120557 -0.991453 0.049868
0.004260 -0.026050 0.644330 -0.038245 -0.999260 0.004184
0.011948 -0.025598 0.643483 0.092347 -0.995312 -0.028747
0.019241 -0.025090 0.643933 0.299872 -0.953692 -0.023413
-0.032885 -0.016478 0.643903 -0.445167 -0.893898 0.052654
-0.027927 -0.018251 0.644319 -0.412583 -0.908270 0.069429
-0.019934 -0.021503 0.644308 -0.331983 -0.941163 0.063243
-0.013448 -0.023332 0.644745 -0.242112 -0.967384 0.074494
0.023084 -0.022638 0.644145 0.774369 -0.631943 -0.031631
0.025247 -0.018673 0.643940 0.901721 -0.432094 -0.013974
-0.042705 -0.009935 0.644484 -0.559084 -0.827251 0.055514
-0.036272 -0.013987 0.644315 -0.492672 -0.867172 0.072713
-0.031730 -0.015707 0.646698 -0.446890 -0.889464 0.095621
0.028142 -0.012098 0.644006 0.916904 -0.399026 -0.008137
-0.051341 -0.002794 0.644428 -0.671115 -0.741321 -0.006917
-0.046703 -0.006936 0.644291 -0.628060 -0.776597 0.049363
0.030953 -0.005242 0.643917 0.942949 -0.332479 -0.017446
0.032343 -0.001404 0.644467 0.989359 -0.142013 -0.031651
-0.057933 0.004859 0.643936 -0.781582 -0.621800 -0.049950
-0.055199 0.001008 0.643811 -0.755372 -0.654910 -0.022478
0.029676 0.004824 0.643674 0.836741 0.545597 -0.046795
0.032389 0.001176 0.643918 0.986748 0.160121 -0.026265
-0.062649 0.011690 0.644067 -0.958319 -0.283611 -0.034498
0.022403 0.013815 0.643968 0.700742 0.713344 -0.010043
0.025532 0.010391 0.644084 0.774875 0.631722 -0.022296
-0.061281 0.020029 0.644123 -0.938038 0.346487 -0.005597
0.013171 0.021948 0.644598 0.602620 0.796441 0.050301
0.017992 0.018004 0.644207 0.669012 0.743028 0.018224
-0.057993 0.027793 0.643925 -0.906639 0.421901 -0.002451
-0.055545 0.031703 0.645098 -0.852758 0.522007 -0.017689
-0.002139 0.031225 0.644958 0.421411 0.904816 0.061007
0.004217 0.028166 0.644309 0.488919 0.870355 0.058647
0.009248 0.025073 0.644549 0.560753 0.825977 0.057605
-0.056195 0.032314 0.644575 -0.892281 0.451470 -0.002964
-0.052894 0.036067 0.643966 -0.704043 0.709763 -0.023669
-0.043738 0.038662 0.643934 -0.112582 0.992651 -0.044371
-0.036151 0.039177 0.643258 -0.017819 0.999402 -0.029619
-0.027918 0.038988 0.644091 0.079028 0.996872 -0.001021
-0.020086 0.037687 0.644373 0.194631 0.980355 0.031981
-0.012066 0.035498 0.644426 0.301028 0.952283 0.050394
-0.005323 0.033281 0.643798 0.372314 0.926960 0.046129
-0.036668 0.040049 0.645162 -0.021339 0.999658 -0.015129
-0.009405 -0.024335 0.650419 -0.193233 -0.973019 0.126073
-0.003575 -0.024818 0.651679 -0.141139 -0.981885 0.126418
0.003904 -0.025555 0.651998 -0.075257 -0.991995 0.101400
0.011748 -0.025860 0.652008 0.022289 -0.998941 0.040240
0.019264 -0.025205 0.652205 0.349622 -0.936785 0.014063
-0.032531 -0.016289 0.649671 -0.448482 -0.885845 0.118922
-0.027334 -0.017665 0.651974 -0.407515 -0.904922 0.122667
-0.019926 -0.020676 0.652048 -0.329153 -0.935941 0.125192
-0.012329 -0.022867 0.652277 -0.233691 -0.964333 0.124299
-0.006008 -0.023703 0.653504 -0.165873 -0.978033 0.126245
0.023020 -0.022727 0.652248 0.768997 -0.638627 0.028252
0.025247 -0.018641 0.651931 0.902324 -0.430323 0.025156
-0.042170 -0.009373 0.651576 -0.555964 -0.819491 0.139059
-0.036118 -0.013020 0.652071 -0.499145 -0.856282 0.132798
-0.031088 -0.015474 0.653090 -0.447523 -0.884726 0.130318
0.028206 -0.012033 0.652179 0.917008 -0.398191 0.023242
-0.050960 -0.002656 0.651838 -0.631359 -0.767747 0.109318
-0.045896 -0.006405 0.652288 -0.582260 -0.800851 0.140039
0.030944 -0.005310 0.652253 0.938394 -0.344370 0.028725
0.032363 -0.001512 0.652090 0.987763 -0.153786 0.025958
-0.058672 0.004776 0.652143 -0.745793 -0.665986 0.015989
-0.054845 0.000923 0.652325 -0.684899 -0.725486 0.067702
0.030144 0.005117 0.651916 0.840284 0.542143 0.001817
0.032500 0.001239 0.651948 0.980049 0.197243 0.024481
-0.062837 0.011801 0.652058 -0.975319 -0.220327 0.014435
0.021695 0.014075 0.652207 0.662549 0.744626 0.080994
0.025890 0.010148 0.652143 0.717490 0.695612 0.036493
-0.061236 0.019980 0.652059 -0.933827 0.356254 0.032416
0.007883 0.023963 0.654750 0.557816 0.821074 0.121155
0.012838 0.021198 0.652403 0.590914 0.797804 0.119702
0.017713 0.017563 0.651495 0.628850 0.770009 0.107856
-0.057895 0.027774 0.652174 -0.908036 0.417262 0.036921
-0.055703 0.031148 0.652511 -0.870150 0.491225 0.039204
-0.002859 0.030813 0.652605 0.410935 0.904066 0.117461
0.003957 0.027383 0.651967 0.494223 0.861441 0.116891
0.009105 0.024543 0.650330 0.550024 0.826720 0.118353
-0.056127 0.032376 0.650344 -0.897158 0.441196 0.021312
-0.052950 0.036066 0.652197 -0.730120 0.682468 0.034093
-0.043805 0.039161 0.652173 -0.086420 0.996235 0.006812
-0.035925 0.039054 0.651939 0.036637 0.997504 0.060358
-0.028045 0.038360 0.651876 0.124778 0.987693 0.094301
-0.020007 0.036914 0.651919 0.210667 0.971298 0.110448
-0.012013 0.034633 0.652156 0.302602 0.946276 0.113992
-0.006086 0.032979 0.651082 0.363794 0.924739 0.111856
-0.037300 0.040029 0.648316 -0.013404 0.999541 0.027179
-0.002648 -0.024388 0.658548 -0.138201 -0.984522 0.107777
0.004159 -0.024844 0.659641 -0.111615 -0.990706 0.077740
0.012058 -0.025434 0.660018 -0.007756 -0.999138 0.040779
0.018766 -0.025063 0.659962 0.355339 -0.931173 0.081557
-0.026457 -0.017068 0.659704 -0.403824 -0.907670 0.114286
-0.020089 -0.019500 0.660090 -0.337819 -0.934734 0.110225
-0.011958 -0.022059 0.659942 -0.233104 -0.966350 0.108768
-0.004537 -0.023333 0.660462 -0.157471 -0.982480 0.099677
0.001346 -0.023821 0.661365 -0.138937 -0.987067 0.079974
0.022575 -0.021992 0.660674 0.787306 -0.599877 0.142467
0.024927 -0.018139 0.659635 0.891988 -0.435801 0.120146
-0.041234 -0.008847 0.659151 -0.552772 -0.824958 0.117844
-0.036025 -0.011869 0.659987 -0.506692 -0.854197 0.116665
-0.030153 -0.014993 0.660364 -0.446439 -0.887614 0.113288
0.027539 -0.012177 0.660226 0.910025 -0.395723 0.123519
-0.050586 -0.001890 0.659798 -0.595454 -0.798440 0.089047
-0.044931 -0.005864 0.660146 -0.576654 -0.809903 0.107362
0.030614 -0.004379 0.660285 0.946956 -0.291032 0.136288
0.032323 -0.001233 0.658194 0.994298 -0.033731 0.101161
-0.058635 0.005107 0.659950 -0.730800 -0.681903 0.030655
-0.054482 0.001337 0.660137 -0.638862 -0.767381 0.054600
0.030464 0.003885 0.660411 0.923537 0.373629 0.086492
0.032356 0.001055 0.658394 0.982670 0.158822 0.095574
-0.062356 0.011988 0.660096 -0.985060 -0.132837 0.109597
0.021134 0.013608 0.659900 0.628912 0.774610 0.066703
0.025852 0.009650 0.659668 0.693653 0.719398 0.036216
-0.060560 0.020006 0.660113 -0.926457 0.352806 0.131169
0.007223 0.023779 0.661385 0.545683 0.832401 0.096637
0.012124 0.020523 0.659925 0.588666 0.802485 0.097418
0.017215 0.016709 0.659677 0.606353 0.790003 0.090730
-0.057534 0.027196 0.659941 -0.899976 0.416882 0.127483
-0.055501 0.030681 0.661164 -0.877415 0.455541 0.150418
-0.008682 0.031879 0.660388 0.352471 0.929334 0.110010
-0.003730 0.030194 0.660107 0.406361 0.906711 0.112900
0.003615 0.026466 0.659819 0.492755 0.863122 0.110507
0.008668 0.024912 0.658617 0.495650 0.861698 0.108668
-0.052555 0.035608 0.660069 -0.737532 0.661621 0.135293
-0.043956 0.038770 0.660065 -0.083720 0.995314 0.048373
-0.035977 0.038492 0.659862 0.071486 0.995503 0.062163
-0.027884 0.037524 0.660041 0.146223 0.985576 0.085194
-0.019825 0.035937 0.660056 0.223290 0.969996 0.096172
-0.012358 0.033852 0.659827 0.309106 0.944661 0.109862
-0.006941 0.032586 0.658374 0.358147 0.925930 0.119935
-0.000852 -0.024175 0.666042 -0.160424 -0.985558 0.054215
0.004763 -0.024591 0.667842 -0.147980 -0.988865 0.015766
0.012316 -0.025285 0.668176 0.066598 -0.996497 0.050588
0.017666 -0.024656 0.667498 0.423417 -0.891391 0.161679
-0.025483 -0.016731 0.667726 -0.402511 -0.912253 0.076019
-0.020088 -0.018737 0.668007 -0.344424 -0.936054 0.071939
-0.012014 -0.021280 0.667995 -0.243940 -0.967470 0.067042
-0.004170 -0.022912 0.668088 -0.174021 -0.983429 0.050841
0.001787 -0.023650 0.667949 -0.167753 -0.985400 0.029080
0.021421 -0.020637 0.668457 0.778055 -0.578221 0.245542
0.024414 -0.016885 0.666193 0.874014 -0.438527 0.209268
-0.040693 -0.008484 0.666901 -0.542207 -0.837007 0.073694
-0.035993 -0.010978 0.667918 -0.508640 -0.857702 0.075051
-0.029161 -0.014688 0.668157 -0.444381 -0.892662 0.075360
0.023573 -0.015332 0.671121 0.857243 -0.430652 0.282265
0.026190 -0.011871 0.667952 0.890557 -0.391986 0.230772
-0.050249 -0.001591 0.668038 -0.563082 -0.826007 0.025514
-0.044315 -0.005510 0.667969 -0.561377 -0.825914 0.052177
-0.039858 -0.007930 0.668555 -0.540796 -0.838750 0.063547
0.029186 -0.004005 0.668040 0.934179 -0.263122 0.240989
0.032723 -0.000288 0.664395 0.902005 0.415700 0.116541
-0.058568 0.005230 0.667900 -0.771876 -0.633601 0.052511
-0.054129 0.001334 0.667899 -0.607585 -0.794230 0.006271
0.029716 0.003561 0.668316 0.960220 0.209383 0.184760
0.032769 0.000569 0.664299 0.828959 0.556608 0.054896
-0.061030 0.011988 0.668053 -0.976276 -0.022590 0.215350
0.020451 0.013738 0.668100 0.604888 0.796174 0.014753
0.025985 0.009402 0.668016 0.718048 0.695386 0.029060
-0.058931 0.020104 0.668155 -0.910363 0.337686 0.239182
-0.055514 0.023989 0.671374 -0.869464 0.408226 0.278179
0.006869 0.023409 0.668367 0.534755 0.842612 0.063574
0.011922 0.020027 0.667897 0.573474 0.817849 0.047443
0.016667 0.016603 0.666973 0.590606 0.805991 0.039525
-0.056897 0.025852 0.667045 -0.885661 0.408242 0.221228
-0.054582 0.029108 0.668801 -0.854777 0.451620 0.255725
-0.009198 0.031361 0.668486 0.358982 0.930674 0.070552
-0.003904 0.029515 0.667992 0.409464 0.909244 0.074926
0.003044 0.026067 0.667602 0.481165 0.873463 0.074442
-0.051161 0.035077 0.668001 -0.738208 0.627423 0.247767
-0.044412 0.038400 0.668396 -0.212286 0.971586 0.104663
-0.035808 0.038105 0.667878 0.093021 0.995273 0.027916
-0.027798 0.036935 0.668039 0.163999 0.985351 0.046776
-0.019889 0.035302 0.668049 0.238925 0.968991 0.063013
-0.012680 0.033261 0.668118 0.315037 0.946530 0.069523
-0.007148 0.032148 0.667301 0.365096 0.927494 0.080376
-0.000570 -0.024094 0.673257 -0.188856 -0.981956 0.009819
0.004864 -0.024667 0.675967 -0.154188 -0.987995 -0.009575
0.011753 -0.024984 0.675873 0.208740 -0.972308 0.105094
0.016668 -0.024265 0.672962 0.502861 -0.832556 0.232340
-0.025098 -0.016482 0.675739 -0.404108 -0.913673 0.043566
-0.020169 -0.018247 0.675962 -0.351144 -0.935425 0.040958
-0.012155 -0.020850 0.676050 -0.256100 -0.966068 0.033560
-0.004121 -0.022691 0.676116 -0.202317 -0.979237 0.012720
0.001655 -0.023596 0.675734 -0.196166 -0.980551 -0.006261
0.015136 -0.023408 0.677862 0.528380 -0.821091 0.215928
0.019170 -0.019982 0.675787 0.763601 -0.571973 0.299600
-0.040756 -0.008299 0.674957 -0.525772 -0.849859 0.036113
-0.035886 -0.010521 0.675961 -0.502540 -0.863545 0.041766
-0.028764 -0.014383 0.676122 -0.444035 -0.894938 0.043797
0.022640 -0.013143 0.676834 0.857218 -0.421635 0.295637
0.024974 -0.010138 0.674532 0.876132 -0.374316 0.303776
-0.050448 -0.001451 0.676039 -0.543778 -0.839147 -0.011751
-0.044090 -0.005418 0.675958 -0.536853 -0.843518 0.016311
-0.039631 -0.007830 0.677785 -0.518034 -0.854786 0.031333
0.026649 -0.004068 0.675888 0.913546 -0.271327 0.303010
-0.057827 0.005269 0.675946 -0.874075 -0.470319 0.121623
-0.054263 0.001340 0.676002 -0.632402 -0.774628 -0.004355
0.027965 0.003548 0.676040 0.966339 0.078431 0.245027
-0.058865 0.012035 0.675928 -0.956361 0.078047 0.281571
0.020745 0.013640 0.676068 0.605291 0.795946 -0.009653
0.025669 0.009633 0.676205 0.810745 0.581202 0.069974
-0.057204 0.019083 0.675173 -0.895850 0.319242 0.309090
-0.055051 0.021834 0.677555 -0.876613 0.375715 0.300644
0.006554 0.023170 0.676106 0.516342 0.855836 0.030584
0.011844 0.019898 0.675800 0.551215 0.834219 0.015511
0.016786 0.016446 0.676485 0.567099 0.823623 -0.006644
-0.056272 0.024106 0.672666 -0.868741 0.393707 0.300472
-0.052690 0.028014 0.675928 -0.832111 0.456714 0.314648
-0.047998 0.031245 0.679181 -0.718369 0.646053 0.257994
-0.009724 0.031109 0.676803 0.362946 0.931130 0.035597
-0.004208 0.029206 0.675950 0.411305 0.910500 0.042635
0.002867 0.025611 0.675555 0.474485 0.879288 0.041429
-0.049439 0.033869 0.675266 -0.755071 0.571261 0.321760
-0.044773 0.036969 0.676650 -0.494688 0.840770 0.219975
-0.036154 0.038170 0.675716 0.071790 0.997271 0.017234
-0.028217 0.036699 0.675906 0.177384 0.984069 0.012000
-0.020071 0.034988 0.676077 0.241527 0.970057 0.025553
-0.013210 0.033195 0.676081 0.313743 0.948886 0.034348
-0.000262 -0.024207 0.686573 -0.220156 -0.975439 -0.007040
0.004839 -0.024750 0.684062 -0.100003 -0.994975 0.004862
0.010281 -0.024732 0.683596 0.295270 -0.950214 0.099540
-0.024837 -0.016387 0.683232 -0.404832 -0.914055 0.024803
-0.019935 -0.018081 0.683992 -0.351278 -0.936027 0.021374
-0.011926 -0.020683 0.684023 -0.265477 -0.963944 0.018296
-0.004108 -0.022627 0.683992 -0.227286 -0.973826 0.001942
0.001566 -0.023666 0.683992 -0.211042 -0.977404 -0.011935
0.014159 -0.022367 0.684424 0.643189 -0.743589 0.182710
0.017613 -0.018418 0.683570 0.810919 -0.541279 0.222325
-0.040404 -0.008379 0.684762 -0.504448 -0.863054 0.025874
-0.035740 -0.010284 0.683985 -0.497030 -0.867226 0.029671
-0.028404 -0.014255 0.684132 -0.446467 -0.894410 0.026410
0.021127 -0.012105 0.683879 0.876015 -0.437418 0.203133
0.024248 -0.008368 0.680918 0.905463 -0.340971 0.252734
-0.050443 -0.001597 0.684097 -0.533203 -0.845926 -0.010196
-0.044049 -0.005343 0.683932 -0.510887 -0.859574 0.011277
-0.039722 -0.007670 0.684364 -0.506140 -0.862100 0.024616
0.023439 -0.006022 0.684997 0.928535 -0.321084 0.186356
0.024933 -0.002778 0.683141 0.940337 -0.259765 0.219748
-0.056875 0.005732 0.683646 -0.950277 -0.279937 0.136416
-0.054586 0.001683 0.684135 -0.755567 -0.653979 0.037820
0.026049 0.003842 0.683863 0.981629 -0.021576 0.189578
-0.056924 0.011396 0.683320 -0.964589 0.143767 0.221130
-0.055553 0.014141 0.685901 -0.949086 0.253894 0.186478
0.021109 0.013548 0.683856 0.661305 0.750116 0.001435
0.025116 0.009596 0.683893 0.887312 0.454103 0.080418
-0.056282 0.016739 0.680826 -0.917549 0.291779 0.270128
-0.054067 0.020033 0.683891 -0.908310 0.358551 0.215438
0.006534 0.023029 0.684023 0.502887 0.864235 0.014247
0.012161 0.019529 0.684031 0.537553 0.843230 -0.000651
0.016797 0.016608 0.684180 0.550343 0.834814 -0.014473
-0.050383 0.027600 0.683506 -0.841119 0.490656 0.227543
-0.047393 0.031150 0.685355 -0.795490 0.571298 0.202026
-0.010259 0.031279 0.683511 0.366081 0.930444 0.016064
-0.004232 0.028901 0.684184 0.415770 0.909261 0.019494
0.002534 0.025677 0.684075 0.464630 0.885250 0.021243
-0.048406 0.032570 0.680602 -0.794362 0.537050 0.283843
-0.044428 0.035337 0.684009 -0.661546 0.723234 0.198217
-0.036573 0.038071 0.683927 -0.058441 0.997484 0.040119
-0.027888 0.036764 0.684171 0.190504 0.981660 -0.007242
-0.019875 0.034865 0.683707 0.252885 0.967478 0.005922
-0.013461 0.033027 0.684404 0.327244 0.944845 0.013384
-0.000692 -0.024077 0.690754 -0.231442 -0.972848 0.000775
0.004695 -0.024726 0.692115 -0.045062 -0.998925 0.010875
0.009474 -0.024486 0.691705 0.355744 -0.933128 0.052130
-0.024946 -0.016338 0.691932 -0.406504 -0.913529 0.014852
-0.020025 -0.017918 0.691935 -0.355467 -0.934612 0.012000
-0.012004 -0.020580 0.691978 -0.271223 -0.962462 0.010281
-0.004149 -0.022594 0.692066 -0.242059 -0.970245 0.005717
0.001148 -0.023661 0.691937 -0.224173 -0.974548 -0.001504
0.013371 -0.021602 0.691868 0.689467 -0.719449 0.083840
0.016808 -0.017383 0.691711 0.824176 -0.558829 0.091889
-0.040125 -0.008306 0.695549 -0.496741 -0.867654 0.020595
-0.035627 -0.010139 0.692005 -0.496419 -0.867829 0.020999
-0.028372 -0.014073 0.692064 -0.452231 -0.891770 0.015279
-0.023899 -0.015874 0.692644 -0.406673 -0.913511 0.010684
0.019842 -0.012191 0.691846 0.883694 -0.461178 0.080003
-0.050550 -0.001605 0.692045 -0.535542 -0.844495 0.004758
-0.044046 -0.005262 0.691999 -0.494125 -0.869273 0.014306
-0.039483 -0.007649 0.692359 -0.497222 -0.867401 0.019630
0.022982 -0.004569 0.692075 0.952607 -0.294637 0.075690
0.024259 -0.001122 0.690445 0.967602 -0.229889 0.104394
-0.056267 0.006215 0.690916 -0.979583 -0.184429 0.080024
-0.054793 0.003097 0.692204 -0.895316 -0.443515 0.041269
0.024882 0.003766 0.691859 0.993757 -0.078980 0.078793
-0.056263 0.009248 0.689744 -0.990326 0.060851 0.124706
-0.055155 0.012388 0.692178 -0.975374 0.202553 0.087283
0.021522 0.013237 0.692039 0.726606 0.687026 0.006198
0.024686 0.009181 0.691485 0.938226 0.343135 0.044606
-0.052863 0.019867 0.691709 -0.924113 0.371575 0.089150
0.006132 0.023252 0.691458 0.488015 0.872790 0.008850
0.011983 0.019898 0.692013 0.520716 0.853725 0.002946
0.017087 0.016780 0.692105 0.539606 0.841917 -0.001430
-0.049582 0.026464 0.691517 -0.858508 0.503318 0.098151
-0.046793 0.030459 0.692125 -0.807900 0.581539 0.095447
-0.010379 0.031180 0.692442 0.363471 0.931584 0.006349
-0.004160 0.028700 0.691955 0.420847 0.907088 0.008904
0.001982 0.025616 0.691962 0.461315 0.887166 0.011200
-0.043423 0.034768 0.691751 -0.693451 0.715049 0.088489
-0.036306 0.037948 0.692141 -0.138165 0.990180 0.021298
-0.028113 0.036807 0.691971 0.189683 0.981816 -0.007649
-0.020060 0.034881 0.691944 0.264987 0.964252 -0.000273
-0.013264 0.032939 0.691687 0.336297 0.941730 0.007055
-0.000432 -0.024146 0.698151 -0.230900 -0.972834 0.016697
0.004753 -0.024690 0.699970 -0.050964 -0.998642 0.010785
0.009295 -0.024470 0.699994 0.326838 -0.944784 -0.023651
-0.024726 -0.016280 0.700058 -0.409506 -0.912272 0.008063
-0.019949 -0.017843 0.699970 -0.353768 -0.935300 0.007849
-0.011957 -0.020481 0.699947 -0.270531 -0.962625 0.012860
-0.004078 -0.022534 0.700032 -0.242564 -0.969987 0.016982
0.001430 -0.023627 0.700253 -0.222362 -0.974720 0.021808
0.013249 -0.021550 0.699729 0.674064 -0.736972 -0.050106
0.016855 -0.017220 0.700191 0.831569 -0.551648 -0.064630
-0.040057 -0.008368 0.700424 -0.490925 -0.870948 0.021040
-0.035412 -0.010065 0.700094 -0.500013 -0.865879 0.015518
-0.028227 -0.014034 0.699985 -0.456756 -0.889534 0.010165
-0.023447 -0.015875 0.700807 -0.402919 -0.915218 0.005653
0.019813 -0.012125 0.699816 0.884562 -0.463313 -0.053771
-0.050393 -0.001549 0.700065 -0.527773 -0.849016 0.025065
-0.043940 -0.005181 0.699958 -0.491410 -0.870694 0.020215
-0.039359 -0.007570 0.700219 -0.497151 -0.867476 0.018038
0.022956 -0.004606 0.699629 0.952774 -0.298378 -0.056495
0.024289 -0.000763 0.701000 0.970176 -0.226385 -0.086649
-0.056168 0.006420 0.701056 -0.985497 -0.160159 -0.056079
-0.054720 0.003072 0.699967 -0.882732 -0.469691 -0.013233
0.023965 0.001266 0.697340 0.984130 -0.177278 -0.007794
0.024879 0.004013 0.699749 0.995545 -0.071396 -0.061590
-0.056151 0.009192 0.703235 -0.989986 0.082582 -0.114488
-0.055078 0.012071 0.699740 -0.979076 0.196031 -0.054599
0.021557 0.013264 0.699838 0.717824 0.696205 -0.005311
0.024524 0.009544 0.699467 0.934837 0.353318 -0.035318
-0.052648 0.019917 0.699632 -0.926084 0.374367 -0.047096
0.006588 0.022885 0.700187 0.493155 0.869941 0.000678
0.012189 0.019481 0.699937 0.525115 0.850990 0.008383
0.017124 0.016507 0.699798 0.543072 0.839626 0.010020
-0.049514 0.026262 0.699822 -0.863349 0.502001 -0.051209
-0.046912 0.030178 0.699415 -0.821662 0.567995 -0.047470
-0.010162 0.031139 0.700113 0.376477 0.926416 -0.004250
-0.004178 0.028717 0.699927 0.422508 0.906353 -0.003295
0.002918 0.025268 0.699760 0.465759 0.884911 -0.000630
-0.043220 0.034860 0.700018 -0.700247 0.711371 -0.060042
-0.036341 0.037967 0.699984 -0.111708 0.993637 -0.014398
-0.028116 0.036927 0.700093 0.186560 0.982444 -0.000226
-0.020130 0.034897 0.699945 0.262300 0.964986 -0.001327
-0.013763 0.033074 0.699943 0.329840 0.944031 -0.003368
0.005103 -0.024598 0.707747 -0.091752 -0.995412 0.027144
0.010020 -0.024569 0.708253 0.231191 -0.971282 -0.056228
-0.024668 -0.016376 0.707253 -0.406186 -0.913765 0.006843
-0.019991 -0.017776 0.707957 -0.351469 -0.936167 0.007765
-0.012048 -0.020358 0.708064 -0.266146 -0.963847 0.012883
-0.004039 -0.022384 0.708023 -0.228997 -0.973102 0.025171
0.002132 -0.023538 0.708371 -0.204535 -0.978065 0.039414
0.013798 -0.022427 0.707322 0.596567 -0.789196 -0.145867
0.017548 -0.018431 0.708391 0.810907 -0.544575 -0.214169
-0.035386 -0.009967 0.708010 -0.503771 -0.863724 0.013990
-0.028245 -0.013956 0.708072 -0.461529 -0.887080 0.008944
-0.023571 -0.015845 0.708205 -0.405985 -0.913859 0.006088
0.021002 -0.012106 0.707648 0.875708 -0.442058 -0.194217
-0.050302 -0.001299 0.707839 -0.530099 -0.847076 0.038166
-0.044157 -0.004860 0.708048 -0.500264 -0.865579 0.022566
-0.039218 -0.007509 0.707946 -0.500735 -0.865469 0.015122
0.023381 -0.006023 0.706488 0.929930 -0.325365 -0.171367
0.024912 -0.002573 0.708362 0.941932 -0.260082 -0.212418
-0.056583 0.005942 0.708240 -0.948852 -0.298876 -0.101750
-0.054233 0.001935 0.707982 -0.739675 -0.672964 0.000830
0.025950 0.003912 0.707718 0.983276 -0.013400 -0.181630
-0.056734 0.010846 0.708935 -0.973143 0.109211 -0.202648
-0.055495 0.013455 0.706399 -0.956402 0.234967 -0.173454
0.021154 0.013510 0.708131 0.641896 0.766771 0.005514
0.024984 0.009613 0.707705 0.875702 0.477360 -0.072625
-0.053708 0.019919 0.707828 -0.911523 0.361018 -0.196957
0.006563 0.022963 0.708027 0.501835 0.864953 -0.004295
0.012024 0.019683 0.707793 0.531786 0.846865 0.004857
0.017106 0.016630 0.707543 0.542028 0.840280 0.011625
-0.050096 0.027383 0.708227 -0.845889 0.489226 -0.212440
-0.047198 0.031090 0.706030 -0.813742 0.553634 -0.176958
-0.010339 0.031216 0.708103 0.373858 0.927432 -0.010032
-0.004103 0.028749 0.707863 0.421974 0.906504 -0.013691
0.002103 0.025573 0.708076 0.467030 0.884185 -0.010035
-0.044011 0.035407 0.708140 -0.644922 0.743200 -0.178127
-0.036107 0.038018 0.707741 -0.016228 0.999769 -0.014090
-0.027997 0.036794 0.708295 0.185147 0.982670 0.009010
-0.019979 0.034915 0.707952 0.259124 0.965839 0.002961
-0.013149 0.032974 0.707981 0.328110 0.944628 -0.004550
0.005838 -0.024421 0.715493 -0.131277 -0.990048 0.050701
0.010990 -0.024591 0.716311 0.075559 -0.996987 -0.017534
-0.024713 -0.016403 0.715835 -0.407009 -0.913394 0.007402
-0.019963 -0.017745 0.716018 -0.349294 -0.936976 0.008332
-0.012002 -0.020260 0.716113 -0.256909 -0.966318 0.015053
-0.004018 -0.022173 0.716078 -0.210113 -0.977151 0.032066
0.002958 -0.023442 0.716385 -0.178253 -0.982620 0.051798
0.014196 -0.023558 0.715283 0.320147 -0.939916 -0.118592
0.019178 -0.020201 0.716444 0.715653 -0.628056 -0.305593
-0.035307 -0.009906 0.715974 -0.507254 -0.861712 0.012060
-0.028161 -0.013913 0.716034 -0.463470 -0.886081 0.007465
-0.023591 -0.015864 0.717790 -0.405335 -0.914146 0.006294
0.022628 -0.013349 0.714576 0.838482 -0.429575 -0.335281
0.025220 -0.010669 0.717367 0.852730 -0.373232 -0.365445
-0.049837 -0.001203 0.715909 -0.546538 -0.836383 0.041945
-0.043973 -0.004727 0.716021 -0.512488 -0.858333 0.024919
-0.039081 -0.007495 0.716290 -0.507174 -0.861674 0.017119
0.026830 -0.004056 0.715660 0.907528 -0.244586 -0.341425
-0.057316 0.005672 0.716245 -0.850095 -0.522930 -0.062312
-0.053848 0.001771 0.716021 -0.636817 -0.770016 0.039239
0.027898 0.004109 0.715859 0.956749 0.189220 -0.220968
-0.058349 0.011740 0.715845 -0.964287 0.006208 -0.264787
0.020640 0.013664 0.716103 0.604133 0.796694 0.017356
0.025514 0.009548 0.715892 0.765975 0.642023 -0.032996
-0.057175 0.018965 0.717199 -0.888240 0.290164 -0.356138
-0.055066 0.021374 0.714516 -0.871725 0.354975 -0.337770
0.006136 0.023224 0.716221 0.504202 0.863582 -0.002661
0.011851 0.019648 0.716046 0.542911 0.839784 0.003135
0.016867 0.016341 0.716610 0.554568 0.832057 0.011679
-0.056082 0.024789 0.719447 -0.844080 0.390768 -0.367190
-0.052464 0.028072 0.716004 -0.813317 0.456991 -0.360102
-0.009921 0.031250 0.715419 0.366517 0.930285 -0.015306
-0.004152 0.028958 0.716174 0.421517 0.906676 -0.016185
0.002287 0.025697 0.716035 0.473968 0.880500 -0.008653
-0.049359 0.033637 0.716780 -0.736521 0.581516 -0.345508
-0.044309 0.036987 0.715964 -0.421340 0.889379 -0.177419
-0.035977 0.037759 0.716052 0.065135 0.997736 0.016756
-0.028225 0.036834 0.716022 0.167975 0.985754 0.008553
-0.020062 0.034863 0.716111 0.254095 0.967175 -0.003041
-0.013445 0.033067 0.716474 0.326605 0.945105 -0.010252
0.006531 -0.024243 0.723239 -0.135811 -0.988651 0.064230
0.012318 -0.024502 0.723879 0.001002 -0.999640 0.026828
0.017035 -0.024336 0.724919 0.292473 -0.953466 -0.073231
-0.024566 -0.016343 0.723389 -0.406727 -0.913511 0.008372
-0.019878 -0.017668 0.724106 -0.343603 -0.939056 0.010563
-0.011981 -0.020121 0.723983 -0.246335 -0.968962 0.020778
-0.003965 -0.021908 0.724045 -0.188223 -0.981383 0.038216
0.003641 -0.023185 0.724216 -0.156163 -0.986130 0.056230
0.010570 -0.023771 0.724669 -0.089215 -0.994583 0.053343
0.020735 -0.021724 0.724187 0.608084 -0.772513 -0.182915
0.024845 -0.017490 0.725718 0.844761 -0.492533 -0.209261
-0.035253 -0.009819 0.723978 -0.512853 -0.858386 0.012468
-0.028153 -0.013841 0.724047 -0.466656 -0.884403 0.007964
-0.023719 -0.015766 0.723630 -0.405532 -0.914052 0.007305
0.023947 -0.015755 0.720396 0.819063 -0.469071 -0.330316
0.027233 -0.012102 0.724541 0.885629 -0.402046 -0.232424
-0.049459 -0.001054 0.723981 -0.560045 -0.827639 0.036915
-0.044026 -0.004465 0.723931 -0.526864 -0.849569 0.025438
-0.038995 -0.007364 0.724241 -0.512557 -0.858507 0.015879
0.029887 -0.004321 0.724168 0.949160 -0.200992 -0.242277
-0.057944 0.006000 0.724063 -0.751741 -0.659354 0.011733
-0.053547 0.002045 0.724095 -0.621420 -0.782347 0.042067
0.029338 0.004150 0.724088 0.909969 0.400497 -0.107514
-0.060495 0.011695 0.724272 -0.966752 -0.211645 -0.143518
0.020739 0.013372 0.723882 0.612843 0.790006 0.017718
0.025557 0.009348 0.724178 0.703230 0.710875 0.011148
-0.059402 0.019934 0.724139 -0.926619 0.278858 -0.252221
0.006682 0.022927 0.724370 0.516919 0.855987 -0.009008
0.011922 0.019605 0.723798 0.549927 0.835212 -0.000865
0.016814 0.016729 0.723381 0.558620 0.829417 0.003312
-0.057125 0.026161 0.724725 -0.876083 0.414184 -0.246841
-0.054689 0.029793 0.723314 -0.834710 0.471702 -0.284176
-0.010261 0.031384 0.724309 0.352740 0.935562 -0.017261
-0.004226 0.029120 0.723920 0.424785 0.905001 -0.023019
0.002268 0.025597 0.724067 0.487754 0.872788 -0.018373
-0.051313 0.034940 0.724389 -0.676067 0.701399 -0.225773
-0.043957 0.037799 0.724115 -0.111659 0.993482 -0.022929
-0.036100 0.037612 0.724249 0.068608 0.997205 0.029573
-0.028083 0.036731 0.723941 0.148704 0.988802 0.012543
-0.020162 0.034982 0.723818 0.242493 0.970148 -0.003332
-0.013108 0.033055 0.724301 0.312091 0.949995 -0.010448
0.007183 -0.024065 0.729642 -0.128806 -0.990190 0.054152
0.012796 -0.024377 0.731587 -0.034410 -0.998780 0.035423
0.017649 -0.024357 0.732093 0.216502 -0.976281 -0.001666
-0.024777 -0.016331 0.731352 -0.400445 -0.916317 0.002673
-0.019847 -0.017626 0.732116 -0.337454 -0.941326 0.005407
-0.011999 -0.019968 0.731968 -0.233180 -0.972307 0.015691
-0.004004 -0.021607 0.732013 -0.171524 -0.984689 0.031103
0.003977 -0.022900 0.732053 -0.143312 -0.988751 0.042826
0.011335 -0.023612 0.732319 -0.090327 -0.995163 0.038628
0.020749 -0.022752 0.732189 0.459661 -0.887590 -0.029915
0.025271 -0.018410 0.732292 0.858051 -0.510275 -0.058027
-0.035039 -0.009823 0.732028 -0.522069 -0.852842 0.010183
-0.028132 -0.013815 0.732015 -0.467501 -0.883988 0.002877
-0.023576 -0.015867 0.731605 -0.402093 -0.915594 0.002986
0.028346 -0.012112 0.732318 0.911122 -0.410589 -0.035685
-0.049310 -0.000857 0.731934 -0.565511 -0.824178 0.030471
-0.044105 -0.004158 0.731990 -0.536010 -0.843807 0.026148
-0.038938 -0.007255 0.731900 -0.525212 -0.850756 0.019155
0.031172 -0.004334 0.732141 0.977399 -0.200764 -0.066220
0.032108 -0.001726 0.734192 0.999087 0.034166 -0.025636
-0.057686 0.006084 0.731892 -0.716050 -0.697345 0.031329
-0.053175 0.002171 0.732029 -0.622361 -0.781959 0.034738
0.029892 0.003971 0.731955 0.873178 0.487155 -0.015488
0.032582 0.001389 0.734141 0.812442 0.580395 0.055489
-0.061100 0.011592 0.732168 -0.939684 -0.341759 -0.013977
0.020722 0.013264 0.731959 0.625954 0.779860 -0.000004
0.025377 0.009276 0.732179 0.687704 0.725937 0.008804
-0.060772 0.020062 0.732122 -0.958690 0.276867 -0.065246
0.006586 0.023051 0.731761 0.529808 0.847998 -0.014209
0.012053 0.019511 0.732097 0.555148 0.831650 -0.013012
0.016434 0.016521 0.731984 0.574654 0.818325 -0.010791
-0.057790 0.027455 0.732323 -0.902382 0.427646 -0.053150
-0.055659 0.031262 0.731726 -0.863014 0.497282 -0.088980
-0.009696 0.031276 0.732491 0.349220 0.936869 -0.017944
-0.003968 0.029218 0.732261 0.425265 0.904920 -0.016430
0.002651 0.025658 0.731909 0.493994 0.869305 -0.016709
-0.052541 0.035206 0.732196 -0.670787 0.738772 -0.065270
-0.044121 0.037803 0.732088 -0.038202 0.999223 0.009720
-0.035903 0.037389 0.732053 0.066491 0.997668 0.015393
-0.028133 0.036577 0.732105 0.132647 0.991124 0.008868
-0.019866 0.034953 0.732066 0.235236 0.971924 -0.005304
-0.012729 0.033018 0.731649 0.305526 0.952107 -0.012069
0.013243 -0.024250 0.739949 -0.024771 -0.999562 0.016208
0.017481 -0.024249 0.739852 0.195111 -0.980083 0.037009
-0.024777 -0.016321 0.740197 -0.389556 -0.920996 -0.003489
-0.019787 -0.017620 0.740026 -0.331713 -0.943378 -0.002185
-0.012030 -0.019891 0.739976 -0.225056 -0.974343 0.002310
-0.004014 -0.021446 0.740009 -0.162717 -0.986659 0.005190
0.003991 -0.022673 0.740016 -0.141874 -0.989861 0.006873
0.011488 -0.023499 0.739905 -0.088550 -0.996023 0.009870
0.020838 -0.022555 0.740230 0.481178 -0.874334 0.063309
0.025308 -0.018329 0.739904 0.858612 -0.508755 0.062881
-0.034891 -0.009858 0.739987 -0.530783 -0.847499 -0.003787
-0.028142 -0.013826 0.740019 -0.467510 -0.883963 -0.006560
-0.023715 -0.015847 0.739963 -0.399297 -0.916799 -0.006408
0.028345 -0.012019 0.740202 0.910798 -0.410451 0.044464
-0.049110 -0.000739 0.739773 -0.570285 -0.821253 0.017842
-0.044036 -0.004005 0.740031 -0.544064 -0.838992 0.009294
-0.038896 -0.007221 0.740000 -0.533353 -0.845892 0.000940
0.031173 -0.004277 0.740366 0.977655 -0.195463 0.077361
0.032099 -0.002104 0.738123 0.999247 0.021274 0.032433
-0.057581 0.006323 0.740035 -0.716949 -0.696568 0.027895
-0.053101 0.002385 0.739936 -0.626521 -0.779125 0.020849
0.029888 0.003793 0.740042 0.886277 0.461723 0.036390
0.032597 0.001164 0.738854 0.862326 0.499843 0.080942
-0.060975 0.011686 0.739966 -0.935816 -0.346795 0.063099
0.020729 0.013319 0.739838 0.635181 0.772241 -0.013750
0.025495 0.009222 0.739895 0.702327 0.711849 -0.002664
-0.060757 0.019911 0.740221 -0.960982 0.265319 0.078227
0.006568 0.023221 0.740101 0.526918 0.849483 -0.027132
0.012226 0.019670 0.739851 0.555745 0.830966 -0.025366
0.016971 0.016395 0.740627 0.592074 0.805606 -0.021136
-0.057710 0.027615 0.740124 -0.904039 0.423882 0.055111
-0.055638 0.031126 0.741292 -0.857664 0.505895 0.092101
-0.009667 0.031430 0.740063 0.344998 0.938321 -0.023031
-0.004175 0.029424 0.740055 0.424558 0.905045 -0.025379
0.002714 0.025788 0.740060 0.489519 0.871630 -0.025164
-0.052586 0.035111 0.740189 -0.667730 0.741602 0.064521
-0.044027 0.037677 0.739832 -0.058506 0.998284 0.002389
-0.036200 0.037380 0.739948 0.061124 0.998067 -0.011233
-0.028071 0.036666 0.740157 0.125141 0.992059 -0.012603
-0.020116 0.035120 0.740046 0.224506 0.974278 -0.019467
-0.013067 0.033223 0.740073 0.298595 0.954129 -0.021890
0.007146 -0.024003 0.751607 -0.116863 -0.991887 -0.050029
0.013009 -0.024217 0.748030 0.049361 -0.998453 0.025590
0.016849 -0.024159 0.746117 0.258868 -0.962216 0.084428
-0.024708 -0.016283 0.748412 -0.397628 -0.917173 -0.026179
-0.019983 -0.017644 0.747956 -0.331826 -0.943057 -0.023122
-0.011986 -0.019980 0.747903 -0.226360 -0.973623 -0.028627
-0.004023 -0.021559 0.747994 -0.165511 -0.985519 -0.036870
0.003976 -0.022815 0.747982 -0.140244 -0.989373 -0.038386
0.011703 -0.023521 0.747862 -0.031939 -0.999489 0.001010
0.020616 -0.021346 0.748390 0.596829 -0.774585 0.209315
0.024800 -0.017392 0.746926 0.835925 -0.502054 0.221745
-0.035096 -0.009918 0.747957 -0.532448 -0.845673 -0.036553
-0.028159 -0.013942 0.748029 -0.462338 -0.886227 -0.029080
-0.023635 -0.015838 0.747583 -0.393973 -0.918737 -0.026607
0.023690 -0.015729 0.751653 0.814392 -0.468037 0.343086
0.027087 -0.012116 0.748282 0.878587 -0.405108 0.252928
-0.048997 -0.000782 0.748304 -0.580786 -0.813926 -0.014555
-0.044049 -0.004060 0.747894 -0.555235 -0.831313 -0.025152
-0.038914 -0.007274 0.747757 -0.539514 -0.841260 -0.034733
0.029879 -0.004194 0.748216 0.946902 -0.194140 0.256294
0.032442 -0.001610 0.745635 0.975035 0.165855 0.147645
-0.057475 0.006501 0.747736 -0.759828 -0.648835 0.040934
-0.053039 0.002454 0.747919 -0.637318 -0.770601 0.000713
0.029446 0.003509 0.748320 0.933896 0.325865 0.147141
0.032290 0.000916 0.744354 0.913805 0.387384 0.122043
-0.060104 0.011927 0.748102 -0.957171 -0.226370 0.180502
0.020883 0.013434 0.748070 0.648271 0.760902 -0.027799
0.025268 0.009564 0.748114 0.728387 0.685160 0.003021
-0.059404 0.019951 0.748237 -0.933167 0.253553 0.254773
0.006948 0.023390 0.748324 0.528527 0.847384 -0.050979
0.012019 0.020031 0.747959 0.560555 0.826904 -0.044816
0.016928 0.016702 0.748398 0.597015 0.801288 -0.038865
-0.057202 0.026397 0.747763 -0.882025 0.404577 0.241557
-0.054802 0.029972 0.749055 -0.831608 0.483680 0.272915
-0.009424 0.031597 0.747544 0.355958 0.933599 -0.041063
-0.004131 0.029660 0.747913 0.416968 0.907919 -0.042672
0.002606 0.026122 0.747939 0.484840 0.873386 -0.046123
-0.051633 0.034741 0.747998 -0.688110 0.691292 0.220498
-0.044442 0.037663 0.748184 -0.173829 0.983252 0.054762
-0.035991 0.037588 0.748208 0.056485 0.997928 -0.030805
-0.027843 0.036800 0.747744 0.126133 0.991489 -0.032235
-0.020122 0.035387 0.748208 0.216833 0.975440 -0.038725
-0.012473 0.033321 0.748027 0.305024 0.951477 -0.040652
0.006754 -0.024145 0.756992 -0.002879 -0.999015 0.044274
0.010824 -0.024192 0.754916 0.122600 -0.986759 0.106185
-0.024852 -0.016360 0.756955 -0.396061 -0.916840 -0.050400
-0.020061 -0.017937 0.755988 -0.333304 -0.941586 -0.048214
-0.011983 -0.020374 0.756037 -0.236544 -0.969887 -0.058019
-0.003990 -0.022027 0.755905 -0.169839 -0.983020 -0.069473
0.003697 -0.023213 0.756129 -0.110034 -0.992997 -0.043000
0.012691 -0.023060 0.756649 0.271655 -0.936663 0.221057
0.019311 -0.019496 0.755811 0.672450 -0.621695 0.401629
0.024009 -0.016183 0.753251 0.807626 -0.465676 0.361782
-0.035462 -0.010185 0.756038 -0.525848 -0.847927 -0.067105
-0.028486 -0.014180 0.755947 -0.454307 -0.889221 -0.053765
-0.023972 -0.015935 0.752485 -0.398110 -0.916405 -0.041359
0.022458 -0.013301 0.757478 0.777397 -0.423456 0.465122
0.025358 -0.010804 0.754768 0.832712 -0.372673 0.409518
-0.049233 -0.000929 0.756252 -0.602403 -0.797024 -0.043167
-0.043953 -0.004572 0.755912 -0.565761 -0.822082 -0.064003
-0.039329 -0.007487 0.755356 -0.545615 -0.835086 -0.070248
0.023920 -0.007772 0.759652 0.807923 -0.297654 0.508589
0.026921 -0.003967 0.756195 0.874230 -0.214519 0.435549
-0.056800 0.006593 0.755191 -0.856175 -0.480277 0.190523
-0.053573 0.003096 0.756368 -0.744517 -0.662009 0.086244
0.027497 0.003640 0.756425 0.922674 0.128070 0.363690
-0.057825 0.011920 0.756016 -0.923918 -0.061179 0.377668
-0.055868 0.012168 0.759560 -0.883884 0.001336 0.467705
0.021401 0.013277 0.756220 0.706046 0.707756 0.024089
0.025199 0.009424 0.756369 0.830576 0.532364 0.163500
-0.057288 0.019287 0.754897 -0.880545 0.242997 0.406931
-0.054948 0.020956 0.758285 -0.831830 0.281991 0.478060
0.007350 0.023742 0.756194 0.535815 0.841722 -0.066379
0.012293 0.020396 0.755987 0.569737 0.819732 -0.058639
0.017358 0.016843 0.756225 0.620519 0.783312 -0.037121
-0.056270 0.024835 0.753195 -0.852401 0.372005 0.367458
-0.052663 0.028120 0.756442 -0.782465 0.439711 0.440911
-0.047112 0.031496 0.759806 -0.650414 0.569404 0.502733
-0.008596 0.031664 0.755569 0.357745 0.931702 -0.062849
-0.003561 0.029848 0.755777 0.419289 0.905802 -0.060986
0.003231 0.026311 0.756009 0.487067 0.870922 -0.065277
-0.049759 0.033761 0.755224 -0.704752 0.586590 0.399045
-0.044765 0.036380 0.756548 -0.448286 0.838686 0.309265
-0.035977 0.037915 0.756291 -0.010210 0.999510 0.029595
-0.027660 0.037056 0.755923 0.118731 0.992091 -0.040714
-0.019976 0.035821 0.756180 0.207926 0.976598 -0.054979
-0.012534 0.033609 0.755936 0.303257 0.950980 -0.060590
-0.007680 0.032834 0.757118 0.361584 0.930436 -0.059544
-0.002737 -0.024087 0.765325 0.171584 -0.881221 0.440464
0.005185 -0.024126 0.761268 0.121872 -0.968270 0.218176
-0.024964 -0.016458 0.763686 -0.392283 -0.918982 -0.039827
-0.020036 -0.018265 0.763691 -0.338167 -0.939721 -0.050661
-0.012141 -0.020770 0.763469 -0.254567 -0.963503 -0.082812
-0.003548 -0.022753 0.764328 -0.067092 -0.996363 0.052533
0.004368 -0.022667 0.764771 0.169386 -0.926311 0.336534
0.011994 -0.019970 0.764078 0.502088 -0.665315 0.552507
0.017319 -0.017655 0.761415 0.669373 -0.498097 0.551216
-0.040795 -0.008222 0.764797 -0.550750 -0.818685 -0.162569
-0.035723 -0.010606 0.763612 -0.506984 -0.857259 -0.089862
-0.028838 -0.014421 0.763787 -0.446363 -0.893454 -0.049997
0.014678 -0.013931 0.766714 0.615066 -0.422929 0.665451
0.019077 -0.011599 0.763613 0.702087 -0.385319 0.598835
0.024424 -0.008615 0.760954 0.784453 -0.301571 0.541930
-0.049089 -0.001073 0.763751 -0.731466 -0.655427 0.188078
-0.044735 -0.004608 0.764325 -0.661014 -0.748926 0.046578
-0.039439 -0.007849 0.761895 -0.544071 -0.834450 -0.087631
0.021197 -0.004387 0.764763 0.746239 -0.233626 0.623335
0.024689 -0.002633 0.761191 0.816850 -0.189860 0.544710
-0.052087 0.004098 0.764252 -0.825254 -0.346725 0.445800
0.022059 0.003815 0.765655 0.772859 -0.040452 0.633288
0.025080 0.003792 0.761725 0.851456 0.014434 0.524227
-0.056287 0.010802 0.760393 -0.874367 -0.027881 0.484464
-0.052974 0.012033 0.764367 -0.793797 0.077197 0.603263
0.021013 0.011686 0.764751 0.812466 0.383528 0.439096
0.024458 0.008973 0.761141 0.863089 0.328377 0.383726
-0.051436 0.019799 0.764044 -0.752512 0.257457 0.606170
-0.047266 0.022543 0.767242 -0.660325 0.328584 0.675280
0.007979 0.023800 0.760412 0.535154 0.840606 -0.083613
0.012895 0.020740 0.764580 0.660213 0.749061 0.055020
0.017175 0.017131 0.765161 0.754293 0.603020 0.259631
-0.049695 0.026765 0.762351 -0.715433 0.407919 0.567237
-0.045354 0.028805 0.765519 -0.627047 0.446124 0.638581
-0.038966 0.031570 0.767794 -0.473807 0.597949 0.646501
-0.008229 0.031926 0.761801 0.364619 0.929790 -0.050431
-0.003649 0.030320 0.763753 0.414849 0.905877 -0.085367
0.003607 0.026702 0.763479 0.477750 0.872203 -0.104961
-0.048022 0.032370 0.760347 -0.682087 0.493206 0.539912
-0.043225 0.034097 0.763202 -0.554501 0.616142 0.559372
-0.036768 0.036196 0.764865 -0.320055 0.825486 0.464906
-0.028244 0.037443 0.764644 -0.035174 0.984977 0.169068
-0.020025 0.036276 0.763771 0.185396 0.980706 -0.062005
-0.012303 0.033990 0.763715 0.302250 0.948935 -0.090377
-0.006846 0.032907 0.764072 0.362952 0.926716 -0.097279
-0.003794 -0.024231 0.769003 0.259503 -0.716891 0.647090
-0.032483 -0.016180 0.772771 -0.442591 -0.699879 0.560609
-0.026983 -0.017507 0.773849 -0.372377 -0.788327 0.489771
-0.019863 -0.019878 0.773821 -0.176022 -0.847668 0.500475
-0.011679 -0.021093 0.773033 0.046701 -0.854465 0.517405
-0.003884 -0.020252 0.772409 0.207367 -0.784689 0.584176
0.003630 -0.018910 0.770998 0.360109 -0.628447 0.689475
0.009434 -0.017451 0.768933 0.499710 -0.501974 0.705913
-0.040926 -0.008785 0.770085 -0.707479 -0.587504 0.392826
-0.035999 -0.011412 0.773319 -0.607138 -0.596430 0.525029
-0.030286 -0.014996 0.774015 -0.473676 -0.729569 0.493315
-0.000689 -0.015708 0.775651 0.377803 -0.606872 0.699265
0.005103 -0.013130 0.774114 0.489764 -0.473649 0.731975
0.011369 -0.011587 0.770779 0.554474 -0.384189 0.738213
0.016715 -0.008764 0.768476 0.638910 -0.316056 0.701357
-0.048430 -0.000372 0.768389 -0.752654 -0.424323 0.503450
-0.043072 -0.003496 0.771816 -0.707623 -0.410135 0.575378
-0.038876 -0.006121 0.774778 -0.659112 -0.427766 0.618537
0.007517 -0.007467 0.775578 0.604671 -0.387967 0.695597
0.012495 -0.004347 0.772981 0.620142 -0.262804 0.739161
0.017406 -0.003370 0.769314 0.660711 -0.211465 0.720238
-0.049072 0.004592 0.769099 -0.730839 -0.149140 0.666056
-0.044696 0.003813 0.772918 -0.675533 -0.109559 0.729145
0.013632 0.003772 0.773784 0.676335 -0.075830 0.732680
0.018120 0.004043 0.769951 0.679576 -0.057781 0.731326
-0.049045 0.011470 0.769098 -0.690264 0.089629 0.717985
-0.044475 0.012103 0.772894 -0.655698 0.110235 0.746933
-0.039834 0.015714 0.775349 -0.645361 0.253153 0.720710
0.013546 0.012097 0.773620 0.688842 0.145874 0.710083
0.017804 0.011321 0.769873 0.714707 0.183941 0.674803
-0.048506 0.017598 0.768462 -0.680861 0.202659 0.703816
-0.043972 0.019808 0.771393 -0.613845 0.267562 0.742701
-0.038560 0.021461 0.774756 -0.592953 0.358055 0.721252
0.006995 0.022890 0.775038 0.639911 0.490750 0.591337
0.011602 0.019559 0.772356 0.701335 0.425178 0.572148
0.016550 0.016566 0.768992 0.738649 0.412122 0.533434
-0.042195 0.026773 0.769712 -0.558056 0.398254 0.727989
-0.036428 0.028210 0.772688 -0.487699 0.465641 0.738463
-0.029780 0.030487 0.774777 -0.384558 0.597749 0.703428
-0.023955 0.031099 0.775937 -0.270052 0.713856 0.646127
-0.002224 0.030842 0.773872 0.418126 0.797324 0.435253
0.004177 0.027285 0.773557 0.571996 0.638430 0.515004
0.009058 0.024836 0.770650 0.676459 0.599210 0.428196
-0.035172 0.033674 0.769847 -0.397188 0.599265 0.695070
-0.028049 0.034460 0.771952 -0.261009 0.735410 0.625337
-0.020320 0.035499 0.772660 -0.106341 0.852222 0.512260
-0.012156 0.034926 0.773373 0.109707 0.881329 0.459590
-0.004876 0.033132 0.773596 0.327296 0.840843 0.431115
0.000175 0.032356 0.773073 0.470628 0.824195 0.314978
-0.025306 -0.016607 0.776730 -0.309774 -0.728338 0.611198
-0.019542 -0.017400 0.777723 -0.147392 -0.770078 0.620690
-0.012124 -0.017596 0.777955 0.078042 -0.770424 0.632737
-0.005593 -0.016969 0.777069 0.270066 -0.697032 0.664237
0.000000 -0.016801 0.776498 0.364846 -0.608015 0.705127
-0.033592 -0.009774 0.777538 -0.567654 -0.531983 0.628302
-0.027867 -0.011897 0.779877 -0.423506 -0.639959 0.641167
-0.020306 -0.013636 0.781704 -0.189932 -0.733773 0.652306
-0.011820 -0.013876 0.782037 0.112525 -0.743763 0.658904
-0.003780 -0.012463 0.780595 0.377437 -0.640437 0.668866
0.002434 -0.010585 0.778086 0.534252 -0.520758 0.665872
-0.040429 -0.000851 0.776341 -0.685890 -0.235535 0.688533
-0.035625 -0.003798 0.779498 -0.655434 -0.361628 0.663047
-0.030220 -0.005997 0.782942 -0.586463 -0.505759 0.632668
-0.001218 -0.006944 0.783411 0.548285 -0.541654 0.637177
0.004390 -0.004338 0.780497 0.645294 -0.382963 0.661010
0.009000 -0.002415 0.777102 0.690509 -0.276422 0.668422
-0.040748 0.004391 0.776808 -0.723035 -0.081704 0.685963
-0.036895 0.003766 0.780749 -0.737801 -0.120028 0.664261
0.005935 0.003607 0.781980 0.746994 -0.126936 0.652601
0.009706 0.004036 0.778023 0.749195 -0.091440 0.656007
-0.040618 0.011155 0.776705 -0.721993 0.104914 0.683900
-0.036751 0.012069 0.780537 -0.733282 0.153252 0.662428
-0.031647 0.015511 0.783607 -0.779554 0.338585 0.526931
0.005808 0.012223 0.781823 0.741028 0.177430 0.647608
0.009627 0.011485 0.777922 0.742891 0.130057 0.656657
-0.035435 0.019399 0.778987 -0.642552 0.372098 0.669828
-0.029827 0.021521 0.782320 -0.595546 0.529715 0.603926
-0.023870 0.023162 0.783757 -0.413233 0.714863 0.564100
-0.001756 0.022673 0.782972 0.528251 0.645214 0.551951
0.004169 0.019962 0.780024 0.638816 0.436242 0.633725
0.008828 0.017573 0.776921 0.691209 0.321493 0.647204
-0.033318 0.025201 0.777113 -0.546652 0.504936 0.667990
-0.027853 0.027305 0.779101 -0.430736 0.617833 0.657837
-0.020467 0.028984 0.780677 -0.221868 0.756071 0.615736
-0.011841 0.029357 0.780770 0.100616 0.795270 0.597848
-0.004164 0.027733 0.779810 0.359246 0.707390 0.608722
0.001862 0.025671 0.777716 0.518124 0.597883 0.611624
-0.024224 0.032217 0.776469 -0.281669 0.703656 0.652327
-0.019245 0.032857 0.776977 -0.141755 0.767960 0.624615
-0.012369 0.032908 0.777188 0.056831 0.794276 0.604893
-0.006311 0.032742 0.776340 0.242699 0.777628 0.579993
-0.025649 -0.009206 0.788505 -0.539588 -0.841908 0.005998
-0.019986 -0.011496 0.788143 -0.244018 -0.968564 0.048363
-0.011821 -0.012044 0.788212 0.173191 -0.984074 0.040042
-0.005167 -0.009751 0.788362 0.497426 -0.867354 0.016254
-0.032591 -0.001174 0.788662 -0.895834 -0.443617 -0.026172
-0.029730 -0.005073 0.788103 -0.767986 -0.639599 0.033324
-0.001266 -0.006876 0.787997 0.703790 -0.710179 0.018054
0.001783 -0.002997 0.788563 0.859787 -0.510337 -0.017953
-0.033940 0.003945 0.788267 -0.981332 -0.192316 -0.001461
-0.031922 0.000582 0.784406 -0.879366 -0.298223 0.371185
0.004345 0.003745 0.788325 0.983598 -0.179959 -0.012235
-0.033931 0.011853 0.788331 -0.980055 0.195573 -0.035277
-0.031610 0.015513 0.784251 -0.890621 0.401794 0.212971
0.004067 0.011751 0.788256 0.974914 0.222572 0.001878
-0.032392 0.016849 0.788854 -0.894919 0.444084 -0.043702
-0.029450 0.020547 0.788075 -0.772967 0.634309 -0.013213
-0.023890 0.023848 0.787104 -0.462567 0.874363 0.146700
-0.002281 0.022191 0.788137 0.661327 0.748710 0.045598
0.001574 0.018015 0.788355 0.833443 0.551970 0.026503
-0.025067 0.024663 0.788677 -0.528841 0.848538 -0.017635
-0.020171 0.026520 0.788179 -0.306906 0.951331 0.027878
-0.011755 0.026910 0.787983 0.133530 0.989244 0.059722
-0.005716 0.025241 0.789122 0.402777 0.913133 0.062915
-0.025645 -0.009113 0.795264 -0.457213 -0.731659 0.505599
-0.019816 -0.010615 0.796196 -0.163572 -0.638344 0.752171
-0.012153 -0.010930 0.796202 0.105543 -0.621267 0.776458
-0.005382 -0.009521 0.795470 0.413553 -0.711230 0.568442
-0.032655 -0.001240 0.794701 -0.831640 -0.419374 0.364006
-0.028105 -0.003958 0.796786 -0.378587 -0.307359 0.873042
-0.020528 -0.005032 0.798198 -0.178485 -0.425984 0.886950
-0.011808 -0.005557 0.798105 0.124103 -0.490565 0.862522
-0.003846 -0.004208 0.797241 0.288999 -0.292888 0.911425
0.001582 -0.002618 0.795643 0.657223 -0.390351 0.644736
-0.033627 0.004046 0.795848 -0.733104 -0.146860 0.664072
-0.028496 0.003612 0.797921 -0.389603 -0.124532 0.912524
